# .PCD v0.7 - Point Cloud Data file format
VERSION 0.7
FIELDS x y z noise intensity gray
SIZE 4 4 4 4 2 1
TYPE F F F F U U
COUNT 1 1 1 1 1 1
WIDTH 873
HEIGHT 1
VIEWPOINT 0 0 0 1 0 0 0
POINTS 873
DATA ascii
0.077896304 0.075878076 0.23808679 0.0021255 378 94
0.078949787 0.075768709 0.2372901 0.0021367727 380 95
0.080096483 0.075750686 0.23677674 0.0021107339 374 93
0.080377564 0.074926257 0.2337456 0.0021015997 380 95
0.081613094 0.075002275 0.23352724 0.0024115853 332 83
0.083640225 0.075793527 0.23553121 0.0023668446 326 81
0.085107915 0.076063022 0.23590952 0.002350559 331 82
0.08650317 0.076261349 0.23606844 0.0023813096 359 89
0.087372527 0.075996935 0.23480129 0.0023160598 361 90
0.088158332 0.075667799 0.23334561 0.0024294902 335 83
0.089275576 0.075628012 0.23279437 0.0024146694 324 81
0.090377606 0.075576529 0.23221999 0.0024701334 296 74
0.090839557 0.074997894 0.23004368 0.002679213 296 74
0.092417084 0.075343244 0.23071945 0.0026349048 278 69
0.093188874 0.075031318 0.22940116 0.0025103593 296 74
0.093961947 0.074728027 0.22813329 0.0025925105 283 70
0.09440314 0.07417132 0.22611861 0.0025747535 275 68
0.095402978 0.074061595 0.22549438 0.0028714335 280 70
0.096821703 0.074275792 0.22588275 0.0026638918 280 70
0.097997941 0.074301161 0.22572461 0.0027229886 265 66
0.098581284 0.073881581 0.22424591 0.0028326153 251 62
0.10015378 0.074204437 0.22505224 0.0029610314 255 63
0.1005133 0.073631458 0.22317444 0.0029123425 236 59
0.10257889 0.074307106 0.22511441 0.0031069601 227 56
0.10362574 0.074238032 0.2248313 0.0035297365 204 51
0.1042264 0.073854282 0.22362995 0.0034078669 190 47
0.10541544 0.073891245 0.22373724 0.0036097714 186 46
0.10656647 0.073901065 0.22379683 0.0036193531 182 45
0.10673234 0.0732347 0.22184257 0.0035206149 193 48
0.10652806 0.072330929 0.21920115 0.003641536 181 45
0.10677412 0.071748458 0.21756415 0.0039414885 175 43
0.10774218 0.071658105 0.21745023 0.0044089919 166 41
0.10864428 0.071526155 0.2172409 0.0041646925 150 37
0.1051949 0.068560787 0.20844696 0.0039629131 152 38
0.10932171 0.070543051 0.21472174 0.0045738644 148 37
0.11072262 0.070744656 0.21561275 0.0044584558 137 34
0.11148825 0.070540406 0.21529448 0.0052753519 135 33
0.11258231 0.070545882 0.21564223 0.0047816904 130 32
0.11831167 0.073428057 0.22482388 0.004987726 122 30
-0.11084996 0.061851159 0.19258416 0.0042346055 154 38
-0.11298374 0.063579299 0.19750908 0.0043602348 145 36
-0.11465649 0.065075502 0.2016585 0.0043549431 155 38
-0.12057195 0.069026574 0.21335974 0.0046217418 145 36
-0.12392657 0.071567915 0.22065151 0.0055376776 131 32
-0.12498051 0.072813727 0.22392651 0.0052299658 134 33
-0.12436293 0.073099248 0.2242489 0.0052741896 130 32
-0.12945981 0.076778978 0.23497023 0.0056681954 108 27
-0.12846747 0.076881364 0.2347343 0.0055920803 106 26
-0.12317117 0.074386336 0.2266047 0.0053145471 120 30
-0.11971557 0.072967134 0.22179958 0.0056420844 112 28
-0.1174753 0.072269127 0.21922186 0.0047864546 128 32
-0.11713325 0.07273674 0.2202035 0.0047027422 126 31
-0.11243498 0.070482433 0.21297793 0.0046115476 136 34
-0.11144016 0.070528753 0.21273999 0.0043307682 151 37
-0.11158378 0.071303435 0.21471901 0.0039557284 168 42
-0.1116455 0.072040416 0.21660253 0.0039127963 159 39
-0.11116372 0.072437815 0.21748631 0.0040878002 156 39
-0.11026294 0.072567359 0.21759117 0.0040291478 157 39
-0.11080389 0.07365793 0.22060169 0.0040185978 164 41
-0.10980616 0.07373742 0.22060965 0.0038835346 161 40
-0.10858878 0.07366953 0.2202072 0.0035565167 186 46
-0.10761032 0.073764019 0.22032122 0.0040364061 184 46
-0.10627925 0.073616236 0.21974361 0.0036751784 183 45
-0.10557023 0.073900759 0.22048876 0.0035877167 178 44
-0.10435813 0.073835462 0.22022286 0.0035029086 208 52
-0.10505192 0.075131796 0.22405085 0.0033246847 223 55
-0.10413592 0.075292639 0.22452608 0.0033166751 206 51
-0.10376699 0.075856969 0.2262388 0.003236928 201 50
-0.10289799 0.076064274 0.22692136 0.0029312246 234 58
-0.10228948 0.076471008 0.22823346 0.0031360772 222 55
-0.10146984 0.07672742 0.22913143 0.0030892184 224 56
-0.1003193 0.076736666 0.22932439 0.0031885062 215 53
-0.099321105 0.076864026 0.22990245 0.0030369733 227 56
-0.098005004 0.076745465 0.22977543 0.0029750303 231 57
-0.096768796 0.076687381 0.22985789 0.0031209777 219 54
-0.096123844 0.077102117 0.23138626 0.0031474803 221 55
-0.094754368 0.076938778 0.23120631 0.0029280428 231 57
-0.093861192 0.077162921 0.23221467 0.00295546 237 59
-0.092794403 0.077248208 0.2328282 0.0028779723 253 63
-0.091856658 0.077444449 0.23379695 0.002755933 262 65
-0.090925351 0.07765127 0.23481697 0.0030719063 252 63
-0.088861205 0.076883398 0.23290159 0.0029038987 263 65
-0.08700677 0.076278955 0.23148672 0.0029348156 269 67
-0.086707138 0.077039674 0.23422627 0.0030472311 270 67
-0.085954994 0.077413641 0.23580483 0.0030592887 255 63
-0.085064359 0.077671483 0.23703988 0.0028367955 265 66
-0.084153973 0.077918284 0.23824883 0.0026413235 273 68
-0.082777672 0.077734582 0.23814464 0.0029141984 283 70
-0.081381977 0.077527083 0.23796649 0.0027391561 261 65
-0.080422215 0.077734888 0.23906276 0.0027579886 268 67
-0.079335772 0.077824593 0.23979577 0.0028891948 256 64
-0.078306004 0.07797344 0.24070938 0.0030267299 261 65
-0.077235632 0.078085795 0.24150775 0.0026172039 276 69
-0.076311193 0.07835149 0.24277733 0.0028930253 268 67
-0.074954286 0.078174517 0.24266967 0.0029199705 271 67
-0.074074998 0.078498021 0.24410953 0.0027344467 261 65
-0.072779872 0.078384206 0.24418305 0.0028744065 250 62
-0.071427129 0.078203537 0.24403852 0.0028563912 257 64
-0.070387065 0.078364901 0.24495257 0.0027623181 248 62
-0.069491267 0.078695178 0.24638817 0.0028497574 248 62
-0.068347879 0.078751706 0.24695928 0.0030108476 252 63
-0.067101449 0.078689374 0.24714795 0.0027073529 257 64
-0.065947741 0.07873553 0.2476674 0.0027082229 278 69
-0.064833149 0.078830935 0.24833243 0.0027616203 267 66
-0.063431889 0.078574806 0.24787922 0.0028086591 263 65
-0.06200029 0.078270592 0.24726173 0.0029703828 263 65
-0.060413852 0.077755228 0.24596353 0.0028393592 248 62
-0.06000137 0.078760341 0.24946706 0.0031311377 224 56
-0.058750834 0.078683853 0.24953847 0.0030359975 228 57
-0.057445988 0.078529969 0.24935344 0.0031594434 233 58
-0.056506604 0.078879729 0.25075847 0.0030496037 233 58
-0.055816017 0.079599425 0.25333357 0.0030028045 237 59
-0.054659095 0.079671167 0.25383961 0.003421797 214 53
-0.053462021 0.079686306 0.2541559 0.0030837471 225 56
-0.052229274 0.07964775 0.25429142 0.0030513101 228 57
-0.051086478 0.079747781 0.25486025 0.0031000904 218 54
-0.050170653 0.080215558 0.25659695 0.0031449546 218 54
-0.048576947 0.079595819 0.25484544 0.0031402234 225 56
-0.047501344 0.079815067 0.25577021 0.0029893175 232 58
-0.046534359 0.080233075 0.25732502 0.0030210319 240 60
-0.0452049 0.08003173 0.25688562 0.0029391609 247 61
-0.044056136 0.080148041 0.25745732 0.0033502043 215 53
-0.043258317 0.080927491 0.26015335 0.0031124295 217 54
-0.042253472 0.081353821 0.26170906 0.0031093517 218 54
-0.040954549 0.081222542 0.26146397 0.0032469274 220 55
-0.039343741 0.080445424 0.25913033 0.0030687258 233 58
-0.038112056 0.080418587 0.25920454 0.0030532377 231 57
-0.036944047 0.080528766 0.25971335 0.0033167256 218 54
-0.035833374 0.080775715 0.26065707 0.0033171854 215 53
-0.034554906 0.080648527 0.26038688 0.0033230875 235 58
-0.033144258 0.080192193 0.25904647 0.0029412427 230 57
-0.031850848 0.07999558 0.25853756 0.0032796471 234 58
-0.030611381 0.079924256 0.2584269 0.0030375854 225 56
-0.029553307 0.080340162 0.25988623 0.0028941529 229 57
-0.028125059 0.079742268 0.25805989 0.0030489203 247 61
-0.02758003 0.081707254 0.26452354 0.0030433007 228 57
-0.026262771 0.08146169 0.26382712 0.003257612 241 60
-0.024948223 0.081200697 0.26307464 0.0030435703 239 59
-0.023664992 0.081019863 0.26257592 0.0030911048 230 57
-0.022428829 0.080989189 0.26255843 0.0031594611 238 59
-0.021180231 0.080907471 0.26237026 0.0030012974 257 64
-0.019861503 0.080531336 0.26122198 0.0028839712 247 61
-0.018637886 0.080516875 0.26124161 0.0031117045 228 57
-0.017468428 0.080750734 0.2620624 0.0032918667 210 52
-0.016256301 0.080807708 0.26230469 0.003282612 214 53
-0.014947425 0.080353871 0.26088414 0.0033529808 203 50
-0.013645977 0.079863019 0.25933829 0.0032153027 212 53
-0.012719658 0.081685714 0.26530159 0.0032500459 216 54
-0.011545856 0.082140729 0.26681972 0.0034114339 201 50
-0.010325816 0.082336992 0.26749334 0.0036641031 204 51
-0.0089225816 0.080925658 0.26293957 0.0032950668 200 50
-0.0077123116 0.081093594 0.26351243 0.0033474681 202 50
-0.0065103993 0.081429712 0.26462784 0.0032560185 210 52
-0.0053083347 0.081920683 0.26624265 0.0032313992 215 53
-0.00407673 0.082116365 0.2668938 0.0037549422 209 52
-0.002834433 0.082173951 0.26709214 0.0034524209 200 50
-0.0015915049 0.082289167 0.26747382 0.0033112911 203 50
-0.00034510388 0.082408823 0.26786581 0.0036075749 193 48
0.00090242166 0.082300328 0.26751226 0.0033575296 204 51
0.0021422745 0.082023956 0.26660904 0.0032189304 213 53
0.0033895993 0.082131565 0.26694992 0.0030836854 223 55
0.0046412065 0.082257278 0.26734549 0.0031822922 227 56
0.0059007551 0.082440719 0.26792461 0.0031183772 224 56
0.0071199597 0.082094885 0.26677951 0.0030954904 223 55
0.0083277011 0.081739403 0.26559922 0.0032872509 214 53
0.009570526 0.081775732 0.265688 0.0035420249 208 52
0.010728239 0.081159875 0.26365381 0.0031553928 221 55
0.012001774 0.08145678 0.2645807 0.0033893248 202 50
0.013228939 0.081412934 0.26439634 0.0034879886 209 52
0.014381655 0.08095748 0.26287121 0.0032253268 219 54
0.015589553 0.08085984 0.26250374 0.0030567204 230 57
0.016805027 0.080812849 0.26229629 0.0031994509 223 55
0.01802869 0.080808952 0.26222417 0.0028107406 246 61
0.019289184 0.08096014 0.26265049 0.0029122939 246 61
0.020547291 0.081083834 0.26298255 0.0032461444 233 58
0.021759115 0.081021227 0.26270542 0.0030118329 251 62
0.023098366 0.081414454 0.26390094 0.0028198732 251 62
0.024321537 0.081379376 0.26370254 0.0027931659 274 68
0.025332086 0.080670618 0.26131672 0.0027048439 274 68
0.026661435 0.080995589 0.26227444 0.0027948522 251 62
0.027834482 0.080838032 0.26166388 0.0029330996 241 60
0.028913649 0.080432586 0.26024601 0.0027244028 272 68
0.0300256 0.080147453 0.25921249 0.0027924832 254 63
0.031473309 0.080745891 0.26103023 0.0029464785 258 64
0.032993183 0.081477754 0.26327109 0.0030600301 245 61
0.034074303 0.081112377 0.26195967 0.0028730577 244 61
0.035263967 0.08102183 0.26153001 0.0028022612 257 64
0.03604741 0.08003547 0.25820392 0.0027969023 248 62
0.037239097 0.079990223 0.25790909 0.002922164 266 66
0.038748682 0.080609143 0.25974762 0.0028818517 276 69
0.040017419 0.080704518 0.25989047 0.0029622926 268 67
0.041202728 0.08063098 0.25948197 0.0027002231 268 67
0.042470343 0.080718115 0.25958285 0.0027419459 261 65
0.043815792 0.080944128 0.26012185 0.0028313459 258 64
0.044968441 0.080811381 0.25949973 0.0026304768 286 71
0.045909375 0.080315292 0.25770417 0.0028469216 270 67
0.04697077 0.080050103 0.25664318 0.0028284881 281 70
0.048029691 0.079794161 0.25560468 0.002639873 288 72
0.049091343 0.079555221 0.25461331 0.0027303186 275 68
0.050307058 0.079571426 0.25443035 0.0027827029 284 71
0.051639486 0.079767153 0.25481167 0.0025547286 289 72
0.052740384 0.079604454 0.25403881 0.0025817095 295 73
0.053974692 0.079645894 0.2539084 0.0026820558 302 75
0.054893162 0.07922966 0.2523106 0.0025524064 297 74
0.056081109 0.079211891 0.25197357 0.0024907752 317 79
0.05722817 0.079138294 0.25144953 0.0024256769 312 78
0.058392555 0.079091191 0.25100023 0.0024808906 302 75
0.059556708 0.079045683 0.25054628 0.002508369 316 79
0.06081849 0.079128981 0.25049037 0.0025615562 304 76
0.062060311 0.079183608 0.25033295 0.00266237 323 80
0.063187771 0.079092987 0.24970634 0.0024601298 312 78
0.064451776 0.079173498 0.24960975 0.0025137619 326 81
0.065717652 0.079253316 0.24950014 0.0025944212 303 75
0.066543907 0.078809604 0.247734 0.002417967 312 78
0.067669347 0.078729652 0.24710374 0.0023316422 337 84
0.068774194 0.07862889 0.24639933 0.0022517629 356 89
0.069864579 0.078515321 0.2456463 0.0023079428 349 87
0.071245566 0.078726679 0.24590009 0.0022109754 356 89
0.071539238 0.077749379 0.24243627 0.0022264787 361 90
0.072343126 0.077349253 0.24077125 0.0021928605 365 91
0.073427737 0.077257253 0.24006015 0.0021688349 371 92
0.074740723 0.077404656 0.2400855 0.002182089 373 93
0.076292634 0.077791125 0.24084283 0.0022223603 352 88
0.077203125 0.077521756 0.23956342 0.0021285198 369 92
0.077907324 0.07705643 0.2376779 0.0021655271 363 90
0.078852549 0.07683973 0.23655961 0.0023384497 354 88
0.079859488 0.076688588 0.23564285 0.0021357834 386 96
0.080980547 0.0766498 0.23507136 0.0022421051 351 87
0.082607955 0.077084586 0.2359502 0.0023273816 336 84
0.083264261 0.076613747 0.23405907 0.0022725142 340 85
0.084952712 0.077092484 0.23507255 0.0023202668 338 84
0.086371839 0.077317126 0.23531267 0.0023154672 338 84
0.087401219 0.077191554 0.2344937 0.0023041875 330 82
0.088036992 0.076726265 0.23265556 0.0022857832 341 85
0.088808991 0.076390281 0.23122534 0.0025029513 309 77
0.090553313 0.076888539 0.23233324 0.0024448091 312 78
0.091089912 0.076361679 0.23035955 0.0027846077 290 72
0.091722712 0.075927682 0.2286887 0.0027505497 291 72
0.09309911 0.076112345 0.22890265 0.0025545063 292 73
0.093891896 0.075821213 0.22770825 0.0026067346 283 70
0.093896538 0.074908353 0.22467558 0.0025463016 285 71
0.095039479 0.074914567 0.22442876 0.0027025205 262 65
0.096684091 0.075311415 0.22537838 0.0026824649 267 66
0.098143727 0.075556576 0.22590123 0.0026723291 279 69
0.099398322 0.075640067 0.22597043 0.0028440838 257 64
0.10035443 0.075497091 0.22539486 0.003222802 229 57
0.10106974 0.075178236 0.22432762 0.0033009455 226 56
0.10155035 0.074693859 0.22280066 0.0030257076 233 58
0.1031099 0.075005002 0.2236805 0.0034281651 215 53
0.10393149 0.074778408 0.22299038 0.0035007566 214 53
0.10446384 0.074350834 0.22173482 0.0035451683 186 46
0.10488933 0.073857144 0.2203152 0.0038180451 185 46
0.10604804 0.073884718 0.22048342 0.0040645367 171 42
0.10562652 0.07282225 0.21742988 0.0037376757 180 45
0.10675446 0.072838962 0.21762873 0.0042866413 167 41
0.10745909 0.07256946 0.21700303 0.0040042782 161 40
0.10802055 0.072209701 0.21613614 0.0044032149 145 36
0.10874725 0.071966521 0.21564589 0.0045046178 141 35
0.10972841 0.071894899 0.21569729 0.0046999478 150 37
0.10997273 0.071346626 0.21434392 0.0047544921 130 32
0.11087933 0.071234517 0.21432483 0.0046644188 136 34
0.11199962 0.071260542 0.21474671 0.0046782 130 32
0.11146352 0.070242241 0.21204115 0.0050622011 128 32
-0.10549684 0.059756223 0.18349905 0.0041343519 148 37
-0.10668059 0.060941983 0.18673894 0.0038942122 165 41
-0.10799133 0.062221304 0.1902061 0.0038925954 161 40
-0.10748903 0.06246914 0.19048768 0.0043649739 159 39
-0.11046488 0.064760387 0.19697405 0.0039006232 169 42
-0.11027285 0.065218531 0.19786623 0.0040371092 160 40
-0.10962259 0.065411389 0.19795719 0.0042648544 160 40
-0.12138897 0.073083267 0.22063652 0.0052069118 135 33
-0.1204837 0.073196031 0.22045399 0.004454717 149 37
-0.12719399 0.077979766 0.23432387 0.0046982076 145 36
-0.12456456 0.077073038 0.2310878 0.0049393266 133 33
-0.12557738 0.078423999 0.23463981 0.0049026953 131 32
-0.12863401 0.081088781 0.24212059 0.0053398656 118 29
-0.12463233 0.079312474 0.23635945 0.0048134639 128 32
-0.11814842 0.075907335 0.22579791 0.0045279213 134 33
-0.11412518 0.074032456 0.21984129 0.0042835097 139 34
-0.11209866 0.073428854 0.21769726 0.0043009347 146 36
-0.11029585 0.07296133 0.21598731 0.0043746373 153 38
-0.11105977 0.074199311 0.21934961 0.0038744458 163 40
-0.10978315 0.074085206 0.2187379 0.0040532281 172 43
-0.10897921 0.074291006 0.21909897 0.0036931923 185 46
-0.10840988 0.074662611 0.2199766 0.003885584 169 42
-0.1076468 0.074907124 0.22050843 0.003851274 171 42
-0.10648032 0.074873105 0.22025084 0.0035615598 180 45
-0.10555042 0.075006478 0.22051713 0.0036905953 176 44
-0.10557132 0.075825632 0.22283061 0.0033819298 195 48
-0.10461942 0.07595624 0.22315253 0.0033936084 195 48
-0.1037112 0.076121785 0.22361013 0.0034040324 203 50
-0.10266573 0.076189145 0.22381274 0.0032549794 203 50
-0.10240816 0.076849267 0.22579046 0.0030729871 227 56
-0.10213344 0.077511318 0.22780821 0.0031624839 218 54
-0.100995 0.077525564 0.22795601 0.0032816478 224 56
-0.099798217 0.0774948 0.2280041 0.003276895 221 55
-0.098720007 0.077556483 0.22835605 0.0031613337 220 55
-0.09801475 0.077916116 0.22961701 0.0031483192 218 54
-0.0971459 0.078152768 0.23054677 0.0029816306 233 58
-0.096672587 0.078717254 0.23247436 0.0032503826 234 58
-0.094740368 0.078093067 0.2309178 0.0029417376 246 61
-0.093325548 0.077885121 0.23061353 0.0031673003 241 60
-0.092270523 0.077975988 0.23121625 0.0031601966 239 59
-0.091112018 0.077980623 0.23158428 0.0028954423 236 59
-0.090441689 0.078408584 0.23323013 0.0028280185 278 69
-0.089106195 0.078263558 0.23318939 0.0028779411 249 62
-0.087446228 0.077825889 0.23228799 0.0027643105 251 62
-0.086286262 0.077827424 0.23270723 0.0029378207 246 61
-0.085895628 0.07853239 0.2352436 0.0028402407 247 61
-0.085020833 0.078808077 0.23650749 0.0027214421 265 66
-0.083881393 0.078842752 0.23705591 0.0029593881 264 66
-0.082547821 0.07869333 0.23705447 0.002860945 253 63
-0.081070513 0.078400612 0.23662125 0.002735924 265 66
-0.079791442 0.078293838 0.23674786 0.0027851788 276 69
-0.079368666 0.079036593 0.2394464 0.003072662 258 64
-0.078282841 0.079131529 0.24018523 0.0028860117 256 64
-0.077213749 0.079246551 0.24098307 0.0027047743 273 68
-0.075977951 0.079191387 0.24125946 0.0028388915 274 68
-0.07488364 0.079284273 0.24198194 0.0028890073 267 66
-0.073957272 0.079560824 0.24326085 0.0029262013 242 60
-0.072407797 0.079165131 0.24247693 0.003003665 241 60
-0.071316287 0.079265341 0.24320279 0.0028810662 252 63
-0.070247985 0.079395153 0.2440127 0.0028354533 260 65
-0.069560103 0.079966739 0.24617544 0.0029072873 248 62
-0.06846039 0.08007659 0.24691127 0.0028246574 253 63
-0.067008197 0.079770729 0.24635497 0.0028258918 254 63
-0.066028096 0.080025963 0.24752177 0.0030709938 248 62
-0.064754464 0.079928309 0.24758813 0.0031140258 249 62
-0.063490927 0.079839669 0.24767174 0.0029350987 242 60
-0.061725065 0.079103887 0.24573426 0.0032166559 235 58
-0.060389422 0.0789015 0.24543992 0.0030413498 230 57
-0.059411246 0.079167418 0.24659263 0.0030652652 229 57
-0.059287183 0.080605343 0.25139293 0.0030095286 237 59
-0.0573342 0.07956478 0.24845503 0.0027796689 260 65
-0.056905694 0.080640517 0.25211579 0.0032210345 242 60
-0.055584826 0.08047086 0.25187656 0.0028860692 238 59
-0.054522019 0.080675565 0.25279948 0.0030993801 226 56
-0.052978825 0.080162637 0.25146303 0.0032646984 224 56
-0.051696535 0.080029905 0.25130767 0.0031158882 227 56
-0.051267177 0.081242524 0.25537109 0.0029624046 242 60
-0.050023053 0.081191473 0.25545686 0.0034129554 220 55
-0.048700694 0.081007741 0.25511548 0.0031047682 223 55
-0.047457173 0.080949135 0.25515857 0.0030042524 228 57
-0.046405137 0.081222631 0.2562404 0.003000096 236 59
-0.044921502 0.080735102 0.25491232 0.0029044205 251 62
-0.043925844 0.081121884 0.25633627 0.0031240529 224 56
-0.043212362 0.082066491 0.25951803 0.0032892399 211 52
-0.042287689 0.082653426 0.26156431 0.0033758455 191 47
-0.04081377 0.082169846 0.26021528 0.0036568074 205 51
-0.039249144 0.081468023 0.25816491 0.0031010306 221 55
-0.037849229 0.081074156 0.25708073 0.0034274997 221 55
-0.036763202 0.081348814 0.258109 0.0032159723 218 54
-0.035325959 0.080838531 0.2566393 0.0032000265 224 56
-0.034267969 0.08119072 0.2579006 0.0032454235 231 57
-0.033059265 0.081198573 0.25806209 0.0031265772 230 57
-0.031788893 0.08104977 0.25771895 0.0028754107 246 61
-0.030733423 0.081458785 0.25914368 0.003265108 232 58
-0.030524876 0.084238738 0.26810953 0.0031596269 218 54
-0.028995445 0.083455756 0.26573214 0.003166304 223 55
-0.027433962 0.082506061 0.26281562 0.0033410434 225 56
-0.026172532 0.0824119 0.26261726 0.0029555706 241 60
-0.024863709 0.082151867 0.26188415 0.0029266088 238 59
-0.023450131 0.081500776 0.25989798 0.0029233557 244 61
-0.022379553 0.082035758 0.2616885 0.0030901451 243 60
-0.021157958 0.082047053 0.2618039 0.0029020172 246 61
-0.019754456 0.081311002 0.25952876 0.0029853757 245 61
-0.018586658 0.081512243 0.26023984 0.0029472625 240 60
-0.017425491 0.081772819 0.26113588 0.0032035392 215 53
-0.016167801 0.081585586 0.26059714 0.0033353723 225 56
-0.014882802 0.081218787 0.25947982 0.0032376444 216 54
-0.01373455 0.081599392 0.26074567 0.0034293775 208 52
-0.012593918 0.082103744 0.26240298 0.0035384742 205 51
-0.011501245 0.0830632 0.2655111 0.0033245019 208 52
-0.010188131 0.082470074 0.26365218 0.0032583389 207 51
-0.0089689409 0.082578726 0.26403219 0.0036505063 200 50
-0.0077122059 0.082321256 0.26323724 0.0035434759 211 52
-0.0065061664 0.082609847 0.26418409 0.003478789 219 54
-0.0052884636 0.082850695 0.2649743 0.0033193312 209 52
-0.0040507722 0.082829855 0.26492333 0.0033341462 214 53
-0.0028195411 0.082980834 0.26541775 0.0030815741 214 53
-0.0015906201 0.083489634 0.26705259 0.0031610546 223 55
-0.00034314336 0.083182268 0.26607269 0.0032362107 205 51
0.00089543615 0.082900666 0.26517105 0.0034162314 206 51
0.0021349897 0.082983688 0.26543146 0.0033597387 206 51
0.0033768232 0.083061814 0.26567212 0.0033351281 224 56
0.0046303244 0.083307914 0.26644582 0.0033318186 226 56
0.0058896677 0.083532661 0.26714686 0.0031102705 224 56
0.0071285232 0.083439067 0.26682559 0.0032751437 225 56
0.0083290013 0.082990922 0.26536638 0.0033281662 211 52
0.009447379 0.081946678 0.26199737 0.0031876902 215 53
0.010687681 0.082078189 0.2623834 0.0030524267 225 56
0.011941039 0.082272604 0.26296604 0.0033431237 224 56
0.013153391 0.082174577 0.26260948 0.0032402978 219 54
0.014358739 0.082053244 0.26217407 0.0033438245 226 56
0.015516507 0.081700467 0.26099485 0.0035870362 208 52
0.016750239 0.081769928 0.26116008 0.0031570562 214 53
0.017997034 0.081889391 0.26148 0.0028382128 247 61
0.019225627 0.081916109 0.26149899 0.0030925374 242 60
0.020541899 0.08229088 0.2626237 0.0030676683 247 61
0.021765612 0.082273476 0.26249143 0.0027580648 258 64
0.022968771 0.082184389 0.2621254 0.0025972549 279 69
0.024177579 0.082123525 0.26184419 0.002922673 272 68
0.025451275 0.082278311 0.26224506 0.0030308615 262 65
0.026615828 0.082082242 0.2615222 0.0030389356 265 66
0.027670829 0.081580453 0.25982043 0.0029060959 253 63
0.028783986 0.081285179 0.25877157 0.0028107341 253 63
0.030072344 0.081488565 0.2593044 0.002791659 255 63
0.03139196 0.081757538 0.26003915 0.0027482947 266 66
0.033140417 0.083081469 0.26412061 0.0027666201 266 66
0.034037311 0.082252055 0.26134917 0.0030305788 261 65
0.034838207 0.081256501 0.25804624 0.002724983 262 65
0.035984762 0.081107013 0.25742546 0.00296961 264 66
0.037256081 0.08123932 0.25769219 0.0027536957 264 66
0.03847516 0.081252962 0.25757512 0.0029910801 255 63
0.03986723 0.081619933 0.2585701 0.0028516171 252 63
0.040903855 0.08125902 0.25725165 0.0027297947 271 67
0.042021658 0.081075519 0.25648841 0.0028290106 276 69
0.043728508 0.082006954 0.2592428 0.0028012679 257 64
0.044922538 0.08195214 0.25886926 0.0027454919 271 67
0.045992799 0.081680425 0.25780314 0.0029967839 263 65
0.047029067 0.081363931 0.25658882 0.0027128388 264 66
0.048039809 0.081020325 0.2552821 0.0026674219 280 70
0.048971292 0.080563203 0.2536113 0.0027589842 277 69
0.050045364 0.080356941 0.25272325 0.0025416932 300 75
0.051311009 0.080460742 0.25280163 0.0023754972 320 80
0.052656509 0.080682158 0.2532393 0.0026513773 277 69
0.053594325 0.080282964 0.25172031 0.0024438642 305 76
0.054991309 0.080574013 0.25235641 0.0024870117 319 79
0.056091368 0.080426857 0.25160989 0.0026416897 304 76
0.057016652 0.080040514 0.25010723 0.0024227335 307 76
0.058212038 0.080041431 0.24980633 0.002328323 331 82
0.059455916 0.080107629 0.24969904 0.0024121054 321 80
0.060720202 0.080198184 0.24965702 0.0025603056 318 79
0.062012356 0.080321334 0.24970561 0.0023420507 331 82
0.063141912 0.080233194 0.24908717 0.0024675415 324 81
0.064073361 0.0799013 0.24770384 0.0023213828 337 84
0.065247253 0.07987833 0.24726985 0.0024416856 326 81
0.0663822 0.079809375 0.24668418 0.0025723667 319 79
0.067494601 0.07971622 0.24601488 0.0024188787 336 84
0.068626955 0.079649441 0.24541837 0.0023044802 354 88
0.069824822 0.079659693 0.2450504 0.0022826928 355 88
0.071020909 0.079667576 0.24466626 0.0022915087 349 87
0.071779899 0.079192989 0.24279457 0.0023085824 362 90
0.072446197 0.078633182 0.24065922 0.0023632632 367 91
0.073401161 0.078399509 0.23951924 0.0024046244 339 84
0.075047754 0.078900337 0.24061523 0.0023978679 354 88
0.07655777 0.079244308 0.24122249 0.0023114844 336 84
0.077300869 0.078796059 0.23941408 0.0022497671 351 87
0.078100085 0.078417599 0.2378186 0.0021900751 360 90
0.07903035 0.078179941 0.23665108 0.0022533031 375 93
0.079941601 0.077930667 0.23544985 0.0022887401 365 91
0.081158772 0.077982493 0.23515956 0.0024636139 348 87
0.082112297 0.0777831 0.23411414 0.0025368202 331 82
0.083489537 0.077985071 0.23427992 0.0022791522 345 86
0.084694542 0.0780228 0.23395601 0.0025199191 337 84
0.086200505 0.07833299 0.23445405 0.0026644985 319 79
0.087102652 0.078093529 0.23331542 0.0023320816 330 82
0.087330885 0.077264167 0.23043099 0.0024256064 313 78
0.089487955 0.078140669 0.23264687 0.0025126021 309 77
0.090169191 0.077722505 0.23102096 0.0025117849 306 76
0.090488397 0.077006862 0.22853358 0.0025317397 293 73
0.09163177 0.077001758 0.22817741 0.0025452708 290 72
0.092869066 0.077074744 0.22807366 0.0026741244 288 72
0.093863621 0.076946937 0.22739919 0.0027506039 265 66
0.094512492 0.076542266 0.2259336 0.0028166105 253 63
0.095393375 0.076332912 0.22507331 0.0029709744 261 65
0.096709944 0.07647302 0.22527184 0.0027931901 268 67
0.097883411 0.076498024 0.22516048 0.0026863005 277 69
0.099455059 0.076830052 0.22598289 0.0029904763 241 60
0.10036148 0.076646462 0.22532022 0.0031171751 219 54
0.10100666 0.076269753 0.22412318 0.0032844984 210 52
0.10156952 0.075839974 0.22280394 0.0032068652 209 52
0.10189436 0.075243913 0.22102985 0.0031417517 221 55
0.10345989 0.075567052 0.22198923 0.0032982291 207 51
0.10339362 0.074704193 0.21949731 0.0035014355 185 46
0.10408216 0.0743993 0.21867666 0.0036751502 196 49
0.10474759 0.074084498 0.21785834 0.0035049063 189 47
0.10580023 0.074047275 0.21788734 0.003745222 177 44
0.10635555 0.073666364 0.21693517 0.0038831963 165 41
0.10721482 0.073501609 0.21664844 0.0040878491 160 40
0.10792884 0.073241636 0.21610935 0.0046712831 137 34
0.10951637 0.073573701 0.21734612 0.0045146686 136 34
0.11035594 0.073401682 0.21712215 0.004749299 129 32
0.1109402 0.073064901 0.21643573 0.0047607548 127 31
0.11111669 0.072468728 0.21500283 0.0048958249 121 30
0.11155628 0.072053984 0.2141284 0.0051969066 123 30
0.11187633 0.071570687 0.21306957 0.0051179193 119 29
-0.10623789 0.06107419 0.18498343 0.0049367971 121 30
-0.10604632 0.06148389 0.18586458 0.0047891447 122 30
-0.10672241 0.062408023 0.18823406 0.0044490886 136 34
-0.10833053 0.06389793 0.19226077 0.0040597827 147 36
-0.10709462 0.063721724 0.1912504 0.0038327074 158 39
-0.10797895 0.064815089 0.19404121 0.00403423 160 40
-0.10822248 0.065539829 0.19572008 0.0042003985 174 43
-0.10726978 0.065546684 0.19525969 0.003942153 169 42
-0.11259887 0.069426917 0.20632319 0.0039389175 169 42
-0.11026163 0.068607941 0.20341529 0.0043161521 175 43
-0.11108595 0.069759235 0.20636407 0.0041928967 170 42
-0.11884566 0.075327843 0.22235525 0.0040834243 166 41
-0.12305685 0.078730926 0.23191839 0.0044607143 149 37
-0.12291286 0.07938578 0.23338406 0.0042595798 157 39
-0.12493724 0.081467114 0.23905174 0.0045366562 151 37
nan nan nan 0 136 34
nan nan nan 0 126 31
-0.12384678 0.083148211 0.24276181 0.0050743581 126 31
-0.12130078 0.082251012 0.23979457 0.0047194022 134 33
-0.11355937 0.077777393 0.22645099 0.0043190648 144 36
-0.10868182 0.07519415 0.21866624 0.0040394925 152 38
-0.10793827 0.075447418 0.21916682 0.0039634248 157 39
-0.10832781 0.076506175 0.22203274 0.0038546422 175 43
-0.10827353 0.077270441 0.22406971 0.0042085042 171 42
-0.10552675 0.076108985 0.22055428 0.0038382716 159 39
-0.10670419 0.077783257 0.22528756 0.0042555002 173 43
-0.10355846 0.076308213 0.22093092 0.0037657698 182 45
-0.10428065 0.077682212 0.22485593 0.0040374654 186 46
-0.10312623 0.077673227 0.22480987 0.0035632178 192 48
-0.10151702 0.07731764 0.22379377 0.0032684733 206 51
-0.10109609 0.077869281 0.22543667 0.0032593752 209 52
-0.1010469 0.078723177 0.22798859 0.0032203984 212 53
-0.098998792 0.078021497 0.2260679 0.0036567093 200 50
-0.097511873 0.077750832 0.2254262 0.0031349598 221 55
-0.09737283 0.078561231 0.22795074 0.0031739087 221 55
-0.097037166 0.07923054 0.23009925 0.0030853949 221 55
-0.096142903 0.079454482 0.23098549 0.0032621273 234 58
-0.095447801 0.07985054 0.23240145 0.0030801983 229 57
-0.093362547 0.07907901 0.2304434 0.0029113267 243 60
-0.092243396 0.079116635 0.23086435 0.0028615005 250 62
-0.091007836 0.079054102 0.23101476 0.0028480946 247 61
-0.090422139 0.07956174 0.23285314 0.0030144576 244 61
-0.089183472 0.079500638 0.2330468 0.0029274945 257 64
-0.087890774 0.07938911 0.23310751 0.0028506853 263 65
-0.087120801 0.079753071 0.23457927 0.0030820305 240 60
-0.086911283 0.080647044 0.23762794 0.0029149971 236 59
-0.085056409 0.080017872 0.23619959 0.0028201449 257 64
-0.083678015 0.079825565 0.23606397 0.0028458734 252 63
-0.082171105 0.079503469 0.23554739 0.002718657 276 69
-0.080636308 0.079144686 0.23492217 0.0027927805 284 71
-0.079741485 0.079412743 0.23615935 0.0027100127 271 67
-0.079365686 0.080213331 0.23898679 0.0027805744 250 62
-0.078632839 0.08067175 0.24080104 0.0028334879 263 65
-0.077221766 0.080437765 0.24054766 0.0027958308 256 64
-0.07595177 0.080345742 0.24071376 0.0026594694 264 66
-0.074434742 0.079985343 0.24006911 0.0028133593 251 62
-0.073084287 0.079795241 0.23992743 0.0028303526 256 64
-0.072162531 0.080074631 0.2411918 0.0030786882 253 63
-0.070973799 0.080062136 0.24157172 0.0030528891 254 63
-0.070065215 0.08037059 0.2429142 0.0028663496 245 61
-0.069116697 0.080643021 0.2441428 0.0027901272 252 63
-0.068265617 0.081040636 0.24574538 0.0031376851 241 60
-0.067282937 0.081293367 0.246903 0.003119648 245 61
-0.065648176 0.080753133 0.24564175 0.002938045 258 64
-0.064438432 0.080725454 0.24592765 0.0028593226 248 62
-0.063314475 0.080806196 0.2465346 0.0032272129 236 59
-0.062098533 0.080770403 0.24677664 0.0029550309 237 59
-0.060652524 0.080428116 0.24607085 0.0030837299 241 60
-0.059712157 0.080756053 0.24740586 0.003132229 244 61
-0.058713008 0.081016213 0.24852581 0.0031735199 247 61
-0.058209393 0.081985064 0.25181481 0.0029542155 235 58
-0.056700177 0.081548616 0.25077966 0.0030675514 237 59
-0.055526052 0.081585653 0.25118941 0.003076857 231 57
-0.054002818 0.081100054 0.24997881 0.0030938522 226 56
-0.052706726 0.080941319 0.24976404 0.0032504003 229 57
-0.051732596 0.081281126 0.25107884 0.0031323347 219 54
-0.051203124 0.082352169 0.25464776 0.0034147613 224 56
-0.050006829 0.082376651 0.25497472 0.0033932303 228 57
-0.048563216 0.081984803 0.25400296 0.0028942297 245 61
-0.047405194 0.082067437 0.25449142 0.0030761168 231 57
-0.046256054 0.082170159 0.25503406 0.0033956019 218 54
-0.045187082 0.082424618 0.25603998 0.0030408087 228 57
-0.043914597 0.082311653 0.25589669 0.0029891359 232 58
-0.043103557 0.083081722 0.25849196 0.0036674531 205 51
-0.042153962 0.083621867 0.26036686 0.0034297151 210 52
-0.040844016 0.083458148 0.2600432 0.0034011679 217 54
-0.039043434 0.082250699 0.25645679 0.0034637342 213 53
-0.037548184 0.081629835 0.25468796 0.0032250921 215 53
-0.03632706 0.081583589 0.25470337 0.0031433932 223 55
-0.035337649 0.082072325 0.25638288 0.0030752411 230 57
-0.034109119 0.08202064 0.25636807 0.0031531029 239 59
-0.032994431 0.082248949 0.25722194 0.0029908132 238 59
-0.031883612 0.082504652 0.25815567 0.0029261978 239 59
-0.030754205 0.082730584 0.25899062 0.0031325941 244 61
-0.029808974 0.08349099 0.26149389 0.0030953935 227 56
-0.028497657 0.083247319 0.26084688 0.0030385198 226 56
-0.027196219 0.08301191 0.26021913 0.0030586196 242 60
-0.026049143 0.083247691 0.26106253 0.0029168106 240 60
-0.02476353 0.083042167 0.26051626 0.0028774124 249 62
-0.023566771 0.083128735 0.26088062 0.0028571954 249 62
-0.022277705 0.082881346 0.26019129 0.0030509776 246 61
-0.020967927 0.082523815 0.25915018 0.003157784 234 58
-0.019731719 0.082429692 0.25893059 0.0029382098 271 67
-0.018539568 0.082519352 0.25928321 0.0030712383 244 61
-0.017412912 0.0829335 0.26065081 0.0030167999 238 59
-0.016147736 0.082700595 0.25998005 0.0033595078 211 52
-0.014930882 0.082697399 0.26002634 0.0035261817 201 50
-0.013693266 0.082568429 0.2596724 0.0035696132 208 52
-0.012534209 0.082934178 0.26086977 0.0031759609 221 55
-0.011445976 0.083897911 0.26394421 0.0031322779 227 56
-0.010234998 0.084086098 0.2645748 0.0032610891 214 53
-0.0089210821 0.083364107 0.26233676 0.0034026736 199 49
-0.0077079865 0.083504304 0.26280719 0.0036972386 191 47
-0.006502951 0.083801486 0.26376748 0.0033174239 204 51
-0.0052743913 0.083863631 0.26398367 0.0034122847 201 50
-0.0040449221 0.083944812 0.26425549 0.0034367905 203 50
-0.0028213204 0.084272586 0.26529929 0.003208017 223 55
-0.0015798308 0.084161058 0.26495582 0.003081904 225 56
-0.00034580918 0.085079759 0.26785144 0.0033870966 214 53
0.00089493993 0.084091462 0.2647391 0.0032734121 207 51
0.0021224164 0.083726339 0.26358441 0.0034324892 207 51
0.0033754108 0.084266379 0.26527491 0.0034665565 221 55
0.0046339487 0.084617577 0.26636651 0.0033343032 207 51
0.0059147519 0.085140593 0.26799443 0.0036818301 206 51
0.0071471361 0.084905647 0.26723206 0.0032211053 211 52
0.0083035761 0.083972573 0.26426831 0.003152617 220 55
0.009482462 0.083478719 0.2626828 0.0035435145 209 52
0.010721985 0.083570704 0.26293656 0.0033018081 209 52
0.011861973 0.082947746 0.2609365 0.003191835 219 54
0.01310582 0.083099514 0.26136932 0.003141782 217 54
0.014354756 0.083254911 0.26180863 0.0033251359 220 55
0.015547837 0.083087385 0.26122785 0.0030626035 229 57
0.016688336 0.082683749 0.25990033 0.003390186 227 56
0.017876975 0.082557268 0.25943944 0.0032012346 239 59
0.019237466 0.083190016 0.26135913 0.0031741625 238 59
0.020382829 0.082872443 0.26028782 0.0030097086 251 62
0.021693252 0.083223924 0.26131272 0.0028989792 250 62
0.022908708 0.083192989 0.26113126 0.0029200006 268 67
0.024144031 0.083233684 0.26116914 0.0028208117 262 65
0.025397303 0.08332935 0.26137385 0.0029231133 246 61
0.026423236 0.082704633 0.25931391 0.0030781298 261 65
0.027482487 0.082234591 0.25773454 0.0027603435 263 65
0.028706474 0.082276329 0.25775379 0.0029785144 268 67
0.030099977 0.082780898 0.25921616 0.0030096015 257 64
0.031537186 0.08336176 0.26090962 0.0029016046 237 59
0.032614369 0.082983114 0.25959325 0.0029420366 258 64
0.033821255 0.082949892 0.25935161 0.0026421668 279 69
0.034828994 0.082447566 0.25763741 0.0026680129 283 70
0.036212511 0.082838647 0.25870827 0.0029283946 263 65
0.037495337 0.082981437 0.25899571 0.0030013074 265 66
0.038160626 0.081791617 0.25511882 0.0028478862 269 67
0.039478522 0.082030542 0.25569284 0.0030026124 254 63
0.04063341 0.081926644 0.25519055 0.0029122452 253 63
0.041897357 0.082042292 0.25536433 0.0028683937 250 62
0.043293431 0.08240293 0.25629175 0.0028353513 279 69
0.04449378 0.082381539 0.25602204 0.0027612625 265 66
0.045686971 0.082348384 0.25570762 0.0027818761 258 64
0.046961073 0.082459018 0.25583106 0.0028023627 251 62
0.048008326 0.082175784 0.25472438 0.0025746035 288 72
0.049043119 0.081885666 0.25358918 0.0025237862 312 78
0.049970996 0.081435196 0.25195074 0.0026948513 292 73
0.051152956 0.081410185 0.25162098 0.0024899514 296 74
0.052380674 0.081457503 0.25150549 0.0024863519 315 78
0.053937666 0.082003295 0.25291783 0.0025277222 301 75
0.055242393 0.082150087 0.2530877 0.0025628246 299 74
0.055787016 0.081184439 0.24982369 0.0025220925 294 73
0.056570943 0.080600202 0.2477293 0.0025141092 320 80
0.058018465 0.080966026 0.24854608 0.0024227663 307 76
0.059189536 0.080939099 0.24814619 0.0023525967 320 80
0.060505968 0.081108071 0.24833657 0.0025072335 313 78
0.061822794 0.081271052 0.2484974 0.0023951323 318 79
0.062916331 0.081139863 0.24774885 0.0024393329 307 76
0.064029716 0.081038706 0.2470832 0.0023195907 323 80
0.065165393 0.080968909 0.24650449 0.0023423384 327 81
0.066198424 0.080776393 0.24554384 0.002473651 331 82
0.067162886 0.080508478 0.24434693 0.0023264699 332 83
0.068388104 0.080556974 0.24410254 0.0023860685 348 87
0.069972254 0.081019424 0.24510133 0.0024492657 340 85
0.07098227 0.080812737 0.24406631 0.0022603548 339 84
0.071968853 0.080586635 0.24296722 0.0022683397 346 86
0.072667234 0.080050379 0.24092981 0.002323088 327 81
0.073540151 0.079720423 0.2395115 0.0022666634 352 88
0.074356526 0.07934048 0.23794118 0.0021992163 367 91
0.075932153 0.079769902 0.2387931 0.0023341239 343 85
0.077032186 0.079694234 0.23812723 0.0024767285 338 84
0.077958815 0.079444125 0.23693928 0.0023249807 354 88
0.078857608 0.079173468 0.23569146 0.0021350288 384 96
0.079852715 0.079005949 0.234753 0.0023374793 347 86
0.08074607 0.078744039 0.23353778 0.0023064713 331 82
0.081867553 0.078708835 0.23299946 0.0024109778 330 82
0.083044216 0.078726932 0.23262365 0.0024912357 321 80
0.084832817 0.079316683 0.23394009 0.0024080456 314 78
0.086252473 0.079550169 0.2342097 0.0024107113 319 79
0.086870611 0.079048045 0.23232526 0.0024544953 304 76
0.087826416 0.078862399 0.23138693 0.002475176 299 74
0.08884526 0.078737453 0.23064253 0.0025310409 303 75
0.08959578 0.078380987 0.22923875 0.002557538 289 72
0.090233505 0.077936158 0.22759856 0.0028715162 285 71
0.091273949 0.077845946 0.22701666 0.0027478321 268 67
0.092518054 0.077929527 0.22696398 0.002707138 269 67
0.093639039 0.077908628 0.22663094 0.0030594475 253 63
0.094584309 0.077743806 0.22590569 0.0031088851 265 66
0.095540404 0.077591702 0.22524579 0.0031830701 242 60
0.096698202 0.077605061 0.22509538 0.0029451624 261 65
0.09781675 0.077586986 0.22488372 0.0027820172 254 63
0.099036172 0.077648424 0.22493339 0.0029066037 240 60
0.10030576 0.077747338 0.22512321 0.0032803207 204 51
0.10101701 0.077416122 0.22410019 0.0035902895 210 52
0.10140283 0.076845683 0.22241788 0.0032596551 204 51
0.10237028 0.076723732 0.22206657 0.0034447107 201 50
0.10255827 0.076026618 0.22008291 0.0037549417 189 47
0.10362315 0.075987585 0.22003621 0.0040336233 182 45
0.10416678 0.075571209 0.21892826 0.0036333292 177 44
0.10486361 0.075273603 0.21819486 0.003769346 173 43
0.10513159 0.074677594 0.2166255 0.0038245572 171 42
0.10541082 0.074101813 0.21514213 0.0038140288 172 43
0.10627355 0.073943816 0.21489893 0.0039510811 166 41
0.1076696 0.074156329 0.21576107 0.0045977659 140 35
0.10825809 0.073813967 0.21503589 0.0045773955 136 34
0.11047568 0.074578144 0.21756287 0.0052691014 126 31
0.11087984 0.074115142 0.21653709 0.0052229697 121 30
0.11121117 0.073612973 0.21541762 0.0051638987 120 30
0.11061399 0.072511785 0.21256147 0.0048886556 132 33
0.10901399 0.070780523 0.2078664 0.0056388266 117 29
-0.10357809 0.060420852 0.18051404 0.0055240947 108 27
-0.10702165 0.062961936 0.18779483 0.0054387785 108 27
-0.10837201 0.064304687 0.19140217 0.0050501451 122 30
-0.10876141 0.065095574 0.19330619 0.0054916423 125 31
-0.10796163 0.065182336 0.19308899 0.0050248625 117 29
-0.10859587 0.066144072 0.19544724 0.0045633782 135 33
-0.10776264 0.066221155 0.19518489 0.0044936328 139 34
-0.10644164 0.065997198 0.19404376 0.0045611812 139 34
-0.10621567 0.066454299 0.19491459 0.0038564985 154 38
-0.10664658 0.067334488 0.19703084 0.0036678764 178 44
-0.10656329 0.067903303 0.19824156 0.003705313 169 42
-0.1065819 0.06854824 0.19968337 0.0037623236 182 45
-0.10455719 0.067878798 0.1973142 0.0042280983 181 45
-0.10368586 0.067952529 0.1971276 0.0036561533 174 43
-0.10959294 0.072512619 0.20994903 0.0039215703 186 46
nan nan nan 0 158 39
nan nan nan 0 158 39
-0.12083408 0.082318656 0.23710342 0.0045625595 139 34
-0.12086608 0.083161585 0.23916797 0.0045591039 155 38
nan nan nan 0 142 35
nan nan nan 0 138 34
-0.11996154 0.085084729 0.24376047 0.0049101538 147 36
-0.11720562 0.083993502 0.24038649 0.0044522635 145 36
-0.11279751 0.08168292 0.2335638 0.0052267588 132 33
-0.10971886 0.080296271 0.22942366 0.0042327079 150 37
-0.10340544 0.076487184 0.21840373 0.0039575957 166 41
-0.10276832 0.076839708 0.21930408 0.0035507781 183 45
-0.10570771 0.079903394 0.22797009 0.0037091549 175 43
-0.10336806 0.079000391 0.22534914 0.0036272269 183 45
-0.1015451 0.078476451 0.22384273 0.0033406341 199 49
-0.10195319 0.079684384 0.22730902 0.0033049341 211 52
-0.09963502 0.078764826 0.22473878 0.003385229 210 52
-0.099381328 0.079474881 0.22685038 0.0033380101 201 50
-0.098383263 0.079599343 0.22732319 0.0036207105 208 52
-0.09767887 0.079967171 0.22852287 0.0031593761 208 52
-0.096446656 0.079906538 0.22852886 0.00332641 216 54
-0.096097894 0.080585279 0.23068008 0.0031146472 231 57
-0.094828904 0.08049953 0.23067237 0.0033462103 234 58
-0.093333267 0.08021687 0.23012561 0.0031169136 232 58
-0.092048898 0.080110937 0.2301092 0.0029468264 235 58
-0.091562338 0.080705501 0.23212968 0.0030747738 233 58
-0.089329347 0.079756193 0.22972901 0.0029462611 245 61
-0.088832177 0.080352105 0.23179679 0.0030392201 225 56
-0.088064745 0.080716141 0.23321697 0.0030716779 259 64
-0.087873466 0.081625141 0.23623276 0.0032313808 252 63
-0.086490586 0.081437014 0.2360898 0.0028880383 246 61
-0.085273273 0.081401706 0.2363999 0.002673801 284 71
-0.083595566 0.080919765 0.23541926 0.0027597151 262 65
-0.081861123 0.0803684 0.23423831 0.002877357 248 62
-0.080386065 0.080059446 0.23376465 0.0028092552 256 64
-0.080967873 0.081819959 0.23934489 0.0031746782 252 63
-0.079854541 0.081894368 0.24000472 0.0029313953 249 62
-0.078649089 0.081875116 0.24039081 0.0028837624 250 62
-0.077548869 0.081966512 0.24110128 0.0030290063 248 62
-0.076063603 0.081647418 0.24060091 0.0029291946 265 66
-0.074408576 0.081133157 0.23951769 0.0028384356 248 62
-0.072745822 0.080593817 0.23835056 0.002754071 257 64
-0.072411925 0.081533112 0.24155329 0.003224086 248 62
-0.070895895 0.081150442 0.24083652 0.0027523004 257 64
-0.069848359 0.081300199 0.24169193 0.0031037047 249 62
-0.069128774 0.081843339 0.24371304 0.0028722808 253 63
-0.068171047 0.082118586 0.24493267 0.003065523 261 65
-0.066983201 0.082121484 0.24533296 0.0028822345 248 62
-0.065611586 0.081895098 0.24503867 0.0032045124 232 58
-0.064302817 0.08174029 0.24494784 0.0027557053 254 63
-0.063307047 0.081984989 0.24604544 0.002835359 258 64
-0.062264245 0.082176991 0.24697751 0.0029117081 249 62
-0.061114624 0.082232758 0.24749172 0.0029210506 248 62
-0.059806008 0.082072526 0.24734586 0.0029254125 249 62
-0.059046041 0.082674019 0.24948776 0.0029892691 238 59
-0.057503108 0.082181424 0.24831882 0.0028913871 250 62
-0.056356627 0.082246579 0.24882394 0.0030176288 223 55
-0.055255458 0.082382098 0.24953312 0.003028817 235 58
-0.054212425 0.082612209 0.25052056 0.0031825642 227 56
-0.053045075 0.082658976 0.25094348 0.0032888132 226 56
-0.05158484 0.082240961 0.2499449 0.0029986913 225 56
-0.050652262 0.082664326 0.2514942 0.0030368362 231 57
-0.049790356 0.083226316 0.25345916 0.0029667441 239 59
-0.048398729 0.082908787 0.25273734 0.0031361205 235 58
-0.047060829 0.082669474 0.25224352 0.0031715962 222 55
-0.046215042 0.083304711 0.25441056 0.0031561062 221 55
-0.045135282 0.083540969 0.25535291 0.0030488404 243 60
-0.043987043 0.083660007 0.25592953 0.0033654636 229 57
-0.042749483 0.083611108 0.25598431 0.0030502214 224 56
-0.041982923 0.084507413 0.25892681 0.0033683351 222 55
-0.040745813 0.084481962 0.25903907 0.0032352712 221 55
-0.038853459 0.083054274 0.25484094 0.0033351725 227 56
-0.037324555 0.082337044 0.25281063 0.0031950679 223 55
-0.036284328 0.082686044 0.25404602 0.0030873262 232 58
-0.03531827 0.083233684 0.25588635 0.0033354915 213 53
-0.034277495 0.083637774 0.25728008 0.0034439038 216 54
-0.03311941 0.083774731 0.25784615 0.0030610722 226 56
-0.031873599 0.083691761 0.2577287 0.0029678454 235 58
-0.030654745 0.083675824 0.25781095 0.0028650207 246 61
-0.029442821 0.083678253 0.25794333 0.0029043215 251 62
-0.028230442 0.083679564 0.25806603 0.0029713891 244 61
-0.027025932 0.083705351 0.2582581 0.0028624241 266 66
-0.025845088 0.083810322 0.25868866 0.0028769379 245 61
-0.024723653 0.084127784 0.25976971 0.0028898777 250 62
-0.023430157 0.083862342 0.25904527 0.0031505008 255 63
-0.022223329 0.083895005 0.2592358 0.0031368323 240 60
-0.021001441 0.083871342 0.2592468 0.0031189201 246 61
-0.019762712 0.083773367 0.25902262 0.0028508503 247 61
-0.018559383 0.083822452 0.25924781 0.0030237571 239 59
-0.01729067 0.083562426 0.25851169 0.0035553738 205 51
-0.016139552 0.083874345 0.25953993 0.0032243093 218 54
-0.014904378 0.08376468 0.25925878 0.0035345934 209 52
-0.013644227 0.083482735 0.25843933 0.0035449902 203 50
-0.012445046 0.083555266 0.25871229 0.0033675241 195 48
-0.011382204 0.08465749 0.26216942 0.003645875 205 51
-0.010166898 0.084755063 0.26251122 0.003248814 207 51
-0.0088691423 0.084097676 0.26050973 0.0037532479 196 49
-0.0075866398 0.083398476 0.25837368 0.0036318067 201 50
-0.0064125019 0.083851218 0.25980189 0.0033606344 200 50
-0.0052838135 0.085249022 0.26415417 0.0033582652 192 48
-0.0040554395 0.085400872 0.26464161 0.0035128444 200 50
-0.0028092542 0.085146278 0.26386502 0.0032301382 209 52
-0.0015925837 0.086088188 0.26679197 0.0032147989 219 54
-0.00034500952 0.086131401 0.26692939 0.0031377624 221 55
0.0008902736 0.08488328 0.26306039 0.0031194955 227 56
0.0021179179 0.084777646 0.2627275 0.0031299088 223 55
0.0033693376 0.08535184 0.26449707 0.0030968324 227 56
0.0046280613 0.085752971 0.26572564 0.0033598582 197 49
0.0059026312 0.08621572 0.26714045 0.0031373282 227 56
0.0071686739 0.08641398 0.26773104 0.0033320955 203 50
0.0083111757 0.085285537 0.26420686 0.0035900131 204 51
0.0095373774 0.085196994 0.26389998 0.0033172499 204 51
0.010704267 0.084659651 0.26219851 0.0033774341 197 49
0.011924118 0.084608629 0.26199889 0.0032396561 213 53
0.013090089 0.084220447 0.26075068 0.0032421874 208 52
0.014267427 0.083965406 0.25991023 0.0032947606 206 51
0.015492813 0.084010981 0.25999561 0.0032283419 232 58
0.016658632 0.083750457 0.25912896 0.0029990161 241 60
0.017881557 0.08379291 0.25919482 0.0030617502 219 54
0.0190497 0.083589591 0.25849554 0.0029727381 243 60
0.020223489 0.083433874 0.25793853 0.0029326661 237 59
0.02149752 0.083685949 0.25863686 0.0025781796 281 70
0.022861045 0.084240884 0.26026499 0.0028638439 281 70
0.024062105 0.084171228 0.25995737 0.0028541652 271 67
0.025157684 0.083757117 0.25858086 0.0027416134 266 66
0.02626835 0.083429046 0.257465 0.0028451663 258 64
0.027304702 0.082904212 0.25573719 0.0027803353 258 64
0.028618289 0.083229907 0.25662729 0.0029951143 251 62
0.029795082 0.083147503 0.25625256 0.002921378 272 68
0.031240061 0.083790839 0.25810727 0.0028599782 252 63
0.032568838 0.084086001 0.25888163 0.0028099739 251 62
0.033662818 0.083775543 0.25778475 0.0027158409 267 66
0.034895081 0.083818868 0.25777012 0.0029372664 281 70
0.036125179 0.083854236 0.25772396 0.0029518979 266 66
0.037829421 0.084952086 0.26093391 0.0027464374 264 66
0.038183793 0.083044909 0.25490814 0.0029268449 235 58
0.039431721 0.083138302 0.25501937 0.0028238783 274 68
0.040661093 0.083188184 0.25498924 0.0026974585 291 72
0.041977651 0.083408423 0.2554729 0.002658867 273 68
0.043278027 0.083585083 0.25581422 0.0028102822 274 68
0.044266619 0.083166346 0.25432572 0.002627824 283 70
0.045336816 0.082919069 0.25335503 0.0029307005 280 70
0.046632461 0.083086252 0.25364241 0.0026706143 297 74
0.047911797 0.083216697 0.25380817 0.0026553115 281 70
0.049014255 0.083041057 0.25303179 0.0025387628 285 71
0.050224092 0.083051383 0.25281361 0.0028019377 280 70
0.051280361 0.082813248 0.25183073 0.0024817933 301 75
