# .PCD v0.7 - Point Cloud Data file format
VERSION 0.7
FIELDS x y z noise intensity gray
SIZE 4 4 4 4 2 1
TYPE F F F F U U
COUNT 1 1 1 1 1 1
WIDTH 983
HEIGHT 1
VIEWPOINT 0 0 0 1 0 0 0
POINTS 983
DATA ascii
-0.34080258 -0.21964273 0.61712861 0.0099193361 63 15
-0.33912477 -0.22050802 0.61810482 0.0099788923 59 14
-0.33862901 -0.22216439 0.62123376 0.0090744197 61 15
nan nan nan 0 44 11
nan nan nan 0 45 11
-0.33287945 -0.22444327 0.62304378 0.01079405 47 11
-0.33792385 -0.22996835 0.63688684 0.0092103723 61 15
-0.33554462 -0.23049784 0.63690114 0.010917597 51 12
-0.33222234 -0.23038341 0.63518339 0.011465957 48 12
-0.32856247 -0.23003045 0.63286358 0.0090331556 60 15
-0.32542351 -0.23003885 0.63159543 0.0085767452 77 19
-0.3256796 -0.23247084 0.63702595 0.0092305085 61 15
-0.3264524 -0.23532335 0.64364153 0.013618169 46 11
-0.32580632 -0.23719971 0.64762706 0.013142422 48 12
-0.32810077 -0.24127626 0.65765816 0.010481479 55 13
-0.3250021 -0.24142951 0.65704536 0.010400138 54 13
-0.31440601 -0.23595913 0.64122081 0.0088495901 59 14
-0.31017274 -0.23519993 0.63829553 0.0067668958 87 21
-0.30679986 -0.2350841 0.63719344 0.0089524882 63 15
-0.30311963 -0.23472777 0.63551682 0.0077654081 71 17
-0.29831028 -0.2334801 0.63150901 0.0060744565 99 24
-0.29870218 -0.23632035 0.63863391 0.0076297703 80 20
-0.30128539 -0.24097553 0.65072888 0.0097189806 60 15
-0.30686527 -0.24815725 0.66970974 0.010136274 63 15
-0.30193725 -0.24690701 0.66601318 0.010138307 62 15
-0.29494002 -0.24391723 0.65771753 0.0083440943 66 16
-0.28798097 -0.24089091 0.64941627 0.0070623183 93 23
-0.2858817 -0.24190663 0.6521011 0.0068398342 88 22
nan nan nan 0 90 22
nan nan nan 0 127 31
-0.2674492 -0.23446214 0.63238484 0.0063526519 91 22
nan nan nan 0 75 18
-0.2704128 -0.2428937 0.65579563 0.0072205677 83 20
-0.26732093 -0.24310757 0.65683031 0.0073283594 79 19
nan nan nan 0 79 19
nan nan nan 0 96 24
-0.24771045 -0.23401885 0.63402957 0.0079374677 83 20
nan nan nan 0 100 25
-0.23663887 -0.22949895 0.62325037 0.011279301 58 14
-0.23795564 -0.23388296 0.63598794 0.011508931 56 14
-0.24024706 -0.23935769 0.65177774 0.0056579164 102 25
-0.23147102 -0.23380487 0.63758409 0.0059649204 113 28
nan nan nan 0 133 33
-0.21602146 -0.2244093 0.61385196 0.0035658893 198 49
-0.21675728 -0.22842406 0.62584221 0.0050674281 135 33
-0.21031348 -0.22487953 0.61714756 0.0033788912 211 52
nan nan nan 0 90 22
-0.20078416 -0.22116888 0.60901773 0.0051461556 113 28
nan nan nan 0 148 37
-0.19779888 -0.22465999 0.62076169 0.0080485987 80 20
-0.19387594 -0.22368437 0.61913389 0.0043345299 166 41
-0.19554965 -0.22923821 0.63560086 0.0059237713 113 28
-0.18930298 -0.22553694 0.62641227 0.0036119542 203 50
-0.19005509 -0.23018959 0.64042467 0.0046994388 134 33
-0.18228531 -0.22450362 0.62566012 0.0028024847 244 61
-0.19494487 -0.24421513 0.68172902 0.004532909 147 36
-0.18969326 -0.24178523 0.67605644 0.0061985776 102 25
nan nan nan 0 83 20
nan nan nan 0 92 23
nan nan nan 0 205 51
nan nan nan 0 179 44
-0.1435506 -0.20047161 0.56492245 0.0027143483 293 73
-0.14030205 -0.19975607 0.56372797 0.0018586217 465 116
-0.1409789 -0.20471208 0.57853699 0.0021466399 412 103
-0.13826784 -0.2048499 0.57972997 0.0020116346 407 101
-0.13656937 -0.20652469 0.58525902 0.002113746 388 97
-0.13431212 -0.20740743 0.58853263 0.0022270216 359 89
-0.13432257 -0.21190585 0.60206419 0.0023042087 344 86
-0.13042782 -0.21030612 0.59825879 0.0024315417 326 81
-0.1268193 -0.20910607 0.59555894 0.0024963492 316 79
-0.12494234 -0.21077159 0.60100067 0.0029246027 251 62
-0.12363618 -0.21350159 0.60947031 0.002547896 309 77
-0.12174252 -0.21532482 0.61534399 0.0029510208 245 61
-0.11834627 -0.21451493 0.61367452 0.0021092962 402 100
-0.11844016 -0.22015114 0.63043815 0.0039079846 178 44
nan nan nan 0 504 126
nan nan nan 0 298 74
nan nan nan 0 151 37
nan nan nan 0 379 94
-0.099555105 -0.21204206 0.60998785 0.0010311148 1060 254
nan nan nan 0 2359 254
-0.091587111 -0.20715861 0.59688658 0.00079866557 2051 254
-0.089242093 -0.20830835 0.60064763 0.00090186321 1620 254
-0.087466553 -0.21090725 0.60857666 0.0010204086 1233 254
-0.084345996 -0.21032965 0.60732621 0.0011115327 1119 254
-0.080930039 -0.20894857 0.6037339 0.0010983237 1103 254
-0.078049004 -0.2088979 0.60396612 0.0011070147 1104 254
-0.076390453 -0.21223988 0.61399579 0.0014101474 757 189
-0.073240057 -0.21153745 0.61231297 0.0017138072 544 136
-0.070229806 -0.2111986 0.61166441 0.001849914 455 113
-0.067619495 -0.21208501 0.6145491 0.0021083294 390 97
-0.064788423 -0.21232751 0.6155538 0.0026847676 284 71
-0.06335929 -0.21740326 0.63056195 0.0036190629 213 53
-0.061338473 -0.22084932 0.64083898 0.005278666 136 34
-0.058595363 -0.22191738 0.64420581 0.0055910321 122 30
-0.055839427 -0.22305107 0.6477505 0.0057073976 117 29
-0.052750167 -0.22290751 0.6475718 0.0044432338 137 34
-0.049633954 -0.22262539 0.64697528 0.0039138901 162 40
-0.04603976 -0.22002202 0.63961571 0.0036386715 178 44
-0.043447394 -0.2221771 0.6460743 0.0034024352 205 51
-0.040271241 -0.2214466 0.64412898 0.0032814017 207 51
-0.037466723 -0.22280715 0.64825255 0.0033193489 220 55
-0.034565423 -0.22378242 0.65124297 0.0030542801 228 57
nan nan nan 0 233 58
nan nan nan 0 249 62
-0.026256923 -0.23161 0.67441356 0.0029629334 245 61
-0.023182234 -0.23259154 0.67737502 0.0029090848 249 62
-0.020044738 -0.23315533 0.67910695 0.0029344158 252 63
-0.016694413 -0.23098798 0.67287004 0.0027651303 267 66
nan nan nan 0 273 68
nan nan nan 0 305 76
-0.0068546203 -0.21983376 0.64051867 0.0023250617 359 89
-0.0038250426 -0.21878317 0.63747948 0.0019174862 434 108
-0.00082551991 -0.2180692 0.63540876 0.0019104229 463 115
0.0021619215 -0.21810967 0.63552392 0.0020941854 423 105
0.0051582237 -0.2184785 0.63658345 0.0022773047 334 83
0.0081926575 -0.21959856 0.6398195 0.0026611139 271 67
0.01134531 -0.22243482 0.64804262 0.0030010415 264 66
0.014355595 -0.22186986 0.64634353 0.0027696148 282 70
0.017457273 -0.22266804 0.64860284 0.0025473526 311 77
0.020524006 -0.22284937 0.64905214 0.00229779 338 84
0.023608744 -0.22315392 0.64984733 0.0023686059 320 80
0.026667906 -0.22317463 0.64980251 0.002556432 285 71
0.029667109 -0.22274089 0.64842165 0.0033429032 209 52
0.032515071 -0.22135842 0.64426666 0.0037988122 166 41
0.035323445 -0.21996525 0.64006889 0.00443283 163 40
0.038097002 -0.21859133 0.63591552 0.0039841058 184 46
0.040809672 -0.21709372 0.63139087 0.0032587477 205 51
0.043766133 -0.21700834 0.630961 0.0032303981 212 53
0.046651825 -0.21660526 0.62959397 0.0031934818 213 53
0.049854454 -0.21763393 0.63237393 0.0035763544 187 46
0.052425355 -0.21594435 0.62724161 0.003297027 211 52
0.055041663 -0.21461233 0.62313664 0.0033202413 208 52
0.057935342 -0.21444201 0.6223917 0.0034895451 193 48
0.060746718 -0.21399824 0.62083888 0.003529377 181 45
0.063736476 -0.21419474 0.62112862 0.0043087099 143 35
0.066871323 -0.21484013 0.62270331 0.0058463141 102 25
0.070789538 -0.21784176 0.63108629 0.0068907193 80 20
nan nan nan 0 72 18
nan nan nan 0 71 17
nan nan nan 0 77 19
nan nan nan 0 95 23
0.086722568 -0.22041748 0.63668776 0.0060708919 108 27
0.087734826 -0.21548812 0.62203282 0.0049292212 140 35
0.089119762 -0.21176526 0.61085927 0.0033756662 205 51
0.088501714 -0.20366764 0.58707237 0.0025927438 289 72
0.091003396 -0.20302491 0.58477491 0.0021528043 376 94
0.093250893 -0.20187004 0.58098811 0.0019335358 431 107
0.095847927 -0.20151661 0.57949281 0.0020497602 445 111
0.098588645 -0.20147657 0.57888091 0.0019494086 434 108
0.10121088 -0.20120318 0.57758045 0.0019346416 441 110
0.10382149 -0.20092177 0.57623905 0.0020906241 425 106
0.10641556 -0.20062372 0.57483202 0.0023749454 348 87
0.10650644 -0.1957403 0.56028169 0.0027003891 287 71
0.10531335 -0.18879487 0.53984427 0.0024580376 342 85
0.10739351 -0.18790969 0.53673977 0.0021248902 382 95
0.10776598 -0.18414789 0.52541405 0.0020274795 397 99
0.1099572 -0.18359493 0.5232386 0.002052309 401 100
0.11193023 -0.18271054 0.52010465 0.0021005885 410 102
0.11345132 -0.18114322 0.51501632 0.0021318048 393 98
0.11965743 -0.18696328 0.53089732 0.0025581678 296 74
0.12644604 -0.19343051 0.54855257 0.0031655964 235 58
0.12915596 -0.19352098 0.54808021 0.0029052941 250 62
0.13154759 -0.19314046 0.54625553 0.0025963967 283 70
0.13515843 -0.19452976 0.54941338 0.0025451675 297 74
nan nan nan 0 376 94
0.1574086 -0.21795978 0.61379594 0.003561557 195 48
0.15654843 -0.21273385 0.59817582 0.0029403172 232 58
0.15937832 -0.2126217 0.59693933 0.0027134409 251 62
0.16288984 -0.21340659 0.59820086 0.0023940541 317 79
0.16351493 -0.21044889 0.58896542 0.0022918778 373 93
0.1642268 -0.2077034 0.58033496 0.0020961952 429 107
0.1727874 -0.21480899 0.59919614 0.0026691449 289 72
0.17237066 -0.21070284 0.5867576 0.001110966 1036 254
nan nan nan 0 2191 254
0.17898469 -0.21169844 0.5875265 0.0009927327 1243 254
0.18092914 -0.21058649 0.58343631 0.0012680406 835 208
0.18706475 -0.21431111 0.59273183 0.0017942969 514 128
0.18841088 -0.21251829 0.58675992 0.0017587922 497 124
0.19316386 -0.21456432 0.59139079 0.0027828617 315 78
0.19482392 -0.21316496 0.58653057 0.0016000989 580 145
0.19805916 -0.21350494 0.58647352 0.0012339902 800 200
0.20659183 -0.21946247 0.60183477 0.0024379028 318 79
0.20534426 -0.2150086 0.58865863 0.0023908673 318 79
0.2087273 -0.21546063 0.58895701 0.0022871098 338 84
0.21469383 -0.21852975 0.59642404 0.0029044417 244 61
0.22762319 -0.2285042 0.62271893 0.004331362 149 37
0.23120458 -0.22895122 0.62304872 0.0048156711 130 32
0.22419304 -0.21903695 0.59526336 0.004079008 151 37
0.22692384 -0.21877714 0.5938015 0.0036363977 202 50
0.22933584 -0.21822073 0.59159058 0.003448722 220 55
0.22702809 -0.21324544 0.57747394 0.0024623293 354 88
nan nan nan 0 227 56
nan nan nan 0 137 34
0.25297946 -0.2287904 0.61794633 0.0054217312 113 28
0.24090299 -0.21520273 0.58087397 0.0042742919 155 38
0.24714103 -0.21810645 0.58840692 0.0041703 158 39
0.25191054 -0.2196603 0.59236789 0.0051416173 116 29
0.25319886 -0.21817775 0.58821732 0.0044920258 142 35
0.25359541 -0.21597032 0.58219248 0.0033828439 190 47
0.25643346 -0.21586911 0.58192402 0.003512207 206 51
0.259316 -0.2158072 0.58183986 0.0061958348 95 23
0.25468466 -0.20956402 0.56516421 0.0051507936 108 27
0.25593889 -0.20824888 0.56184822 0.0036875638 175 43
0.25842488 -0.20795393 0.56135732 0.005580469 114 28
0.27065054 -0.21541746 0.58189672 0.0064607854 88 22
0.26591638 -0.20936684 0.56600654 0.0056081666 109 27
0.27196595 -0.21184522 0.57323861 0.0063839126 104 26
0.27469033 -0.21170853 0.57347119 0.0067021744 103 25
0.27695623 -0.21122493 0.57283175 0.008150964 70 17
0.27618945 -0.20846239 0.56606787 0.0073396857 72 18
0.28184503 -0.21055429 0.57254905 0.0079600457 77 19
0.28599995 -0.211494 0.57597262 0.009944642 54 13
0.28455576 -0.20831598 0.56823385 0.0096429158 58 14
0.29032439 -0.21042892 0.57498258 0.0103185 53 13
0.29404971 -0.21103385 0.57768124 0.0086163832 69 17
0.29616866 -0.21048541 0.57727885 0.011090327 57 14
0.29437628 -0.20719457 0.56938797 0.0091847759 60 15
0.29518995 -0.20578328 0.56668729 0.010521828 57 14
-0.35267666 -0.21470493 0.61534476 0.010056097 53 13
nan nan nan 0 40 10
nan nan nan 0 36 9
nan nan nan 0 33 8
-0.34927705 -0.22007817 0.62745285 0.0088252425 63 15
-0.34136382 -0.2169909 0.61722106 0.0071645412 87 21
-0.34151885 -0.21902296 0.62149096 0.0076789861 73 18
-0.34050465 -0.22033498 0.62367254 0.0088116899 62 15
nan nan nan 0 48 12
nan nan nan 0 39 9
nan nan nan 0 38 9
-0.33041739 -0.2217799 0.62177378 0.011784695 58 14
-0.32924336 -0.22307128 0.62399346 0.010963666 49 12
nan nan nan 0 43 10
nan nan nan 0 67 16
-0.32537407 -0.22685342 0.63062441 0.007913664 80 20
-0.32366657 -0.22786936 0.63224351 0.0069834106 79 19
-0.32323793 -0.22981454 0.63648814 0.0083738724 67 16
-0.32324076 -0.23210841 0.64174271 0.0099064326 60 15
-0.32607552 -0.23650244 0.65284157 0.010043827 55 13
-0.32254419 -0.23632164 0.6513648 0.011901287 53 13
nan nan nan 0 49 12
-0.30706063 -0.22965071 0.63129455 0.0097391345 69 17
-0.30805728 -0.23281428 0.63925183 0.0094093075 60 15
nan nan nan 0 68 17
-0.29047832 -0.22423606 0.61450398 0.0071562692 89 22
-0.28724685 -0.22414453 0.61377448 0.0060831369 102 25
-0.28594428 -0.22557263 0.6172846 0.0066638258 89 22
nan nan nan 0 61 15
-0.29891974 -0.24109122 0.65916169 0.0088379066 63 15
-0.29009277 -0.23662233 0.64678609 0.0086207017 65 16
nan nan nan 0 62 15
nan nan nan 0 62 15
-0.2578772 -0.21774468 0.59524095 0.0080649462 67 16
-0.25611469 -0.21882252 0.59836841 0.0072301901 79 19
-0.27003163 -0.23348351 0.63873672 0.012306732 49 12
nan nan nan 0 52 13
-0.27173227 -0.24073556 0.65940356 0.0084929168 63 15
-0.2665453 -0.23908186 0.6554057 0.0064937049 92 23
nan nan nan 0 86 21
nan nan nan 0 153 38
nan nan nan 0 99 24
nan nan nan 0 192 48
-0.23525649 -0.22503306 0.62039554 0.0056138486 111 27
-0.23688088 -0.22963743 0.63397783 0.0092511699 61 15
-0.2358218 -0.23173058 0.64070004 0.008654342 65 16
-0.23482983 -0.2339485 0.64782685 0.0056908387 101 25
-0.22362433 -0.22591069 0.62656552 0.0054987688 110 27
-0.22087027 -0.22630353 0.62868357 0.0043420312 139 34
-0.21666153 -0.22519563 0.62665492 0.0066503999 100 25
-0.2130762 -0.22471285 0.62637901 0.0048821513 121 30
-0.20642155 -0.22093058 0.61690158 0.0061468175 111 27
-0.19897565 -0.21617454 0.60467541 0.0036018884 177 44
nan nan nan 0 232 58
nan nan nan 0 98 24
nan nan nan 0 162 40
-0.19904603 -0.23014079 0.64827049 0.004883416 132 33
-0.19121477 -0.22469413 0.63402659 0.0035193001 184 46
-0.19007142 -0.22705606 0.64179248 0.0051355567 144 36
nan nan nan 0 205 51
-0.1909491 -0.2359329 0.66913533 0.0039810124 180 45
-0.19208723 -0.24148291 0.68600476 0.0046333116 141 35
-0.18905286 -0.24189144 0.68827814 0.0067323321 102 25
nan nan nan 0 104 26
nan nan nan 0 227 56
-0.14728853 -0.19906627 0.56906945 0.0033886652 198 49
-0.14304407 -0.19702795 0.56407923 0.0022514272 355 88
-0.13964224 -0.19609337 0.56221688 0.0018224833 525 131
-0.13779207 -0.19734387 0.56660092 0.0019474531 468 117
-0.13708672 -0.20031804 0.57593018 0.0019927926 425 106
-0.13631061 -0.20330986 0.58531255 0.0021276022 387 96
-0.13438895 -0.20468348 0.59003145 0.0023398162 354 88
-0.13185841 -0.20516907 0.5921756 0.0021893089 382 95
-0.1287179 -0.20470604 0.59156024 0.002228715 394 98
-0.12595193 -0.20483124 0.59262168 0.0021176143 411 102
-0.12391745 -0.20617926 0.59720451 0.0020599719 394 98
-0.12167183 -0.20723146 0.60091645 0.0021193509 378 94
-0.11755124 -0.20506382 0.59526688 0.0021195044 382 95
-0.11545631 -0.20640999 0.59979326 0.0021026458 390 97
-0.11423576 -0.20942768 0.60916871 0.0022701169 352 88
-0.11116352 -0.20911968 0.60885733 0.0021039054 381 95
-0.1120678 -0.2164764 0.63086021 0.0030336545 252 63
nan nan nan 0 222 55
nan nan nan 0 193 48
nan nan nan 0 164 41
nan nan nan 0 248 62
-0.094080582 -0.2098837 0.61417514 0.0011432677 842 210
nan nan nan 0 1791 254
nan nan nan 0 2337 254
-0.08424186 -0.20719253 0.60757178 0.0012220008 939 234
-0.083098792 -0.21160911 0.62091976 0.001786556 454 113
-0.078712493 -0.20778802 0.61008 0.0011421881 920 230
-0.075124733 -0.20586427 0.60478407 0.00084000581 1696 254
-0.072351269 -0.20610799 0.60583639 0.0010022115 1182 254
-0.069562837 -0.20632742 0.60680223 0.0012039043 981 245
-0.066897653 -0.20694694 0.60893011 0.0016043832 629 157
-0.064631641 -0.20891234 0.61500663 0.0021261168 365 91
-0.061766949 -0.20903644 0.61565006 0.0021387157 369 92
-0.059179462 -0.21015716 0.61921555 0.0025160734 312 78
-0.056198064 -0.20992273 0.61877441 0.0029602863 248 62
-0.055872206 -0.22012496 0.64909351 0.0042419247 156 39
-0.052971203 -0.22077544 0.65124416 0.0058798017 118 29
-0.050137181 -0.22180215 0.65449166 0.0059540225 104 26
-0.047069672 -0.22186275 0.6548751 0.0055180523 109 27
-0.043732904 -0.22057381 0.65125984 0.004851256 132 33
-0.040123295 -0.21761091 0.64268464 0.0047396454 141 35
-0.036805332 -0.21587594 0.63771898 0.0044982689 157 39
-0.034049675 -0.21742378 0.6424377 0.003810954 166 41
-0.031007892 -0.21726809 0.64211082 0.0034413035 189 47
-0.028058652 -0.21779715 0.64379483 0.003358477 208 52
-0.025051855 -0.21795329 0.64436418 0.0032765542 235 58
-0.022078944 -0.21848769 0.64603949 0.0029613567 232 58
-0.018990461 -0.21786654 0.64428538 0.0029267129 241 60
-0.015971998 -0.21796539 0.64464802 0.0030322399 248 62
-0.012898073 -0.21717666 0.64237309 0.0027111657 268 67
-0.0098007936 -0.21539322 0.63714314 0.0024769388 297 74
-0.0068230331 -0.21582337 0.63844877 0.0022488397 338 84
-0.0038173571 -0.21535277 0.63707787 0.0021145074 378 94
-0.00082699151 -0.21546558 0.63742083 0.0022225217 344 86
0.0021660707 -0.21553497 0.63762349 0.0027031673 279 69
0.0051766424 -0.21625529 0.63973969 0.002881757 241 60
0.0082300622 -0.21757944 0.64363009 0.0029275652 239 59
0.011289231 -0.21830358 0.64573312 0.0028316346 264 66
0.014351253 -0.21876457 0.64704531 0.0027037363 290 72
0.017412022 -0.21904872 0.6478219 0.0025340891 299 74
0.020530414 -0.2198655 0.65016109 0.0025097812 298 74
0.023591906 -0.21994025 0.65029305 0.0026161496 277 69
0.026656244 -0.22002138 0.65043122 0.0032041154 207 51
0.029645925 -0.21953298 0.64887309 0.0043285596 147 36
0.032538883 -0.2184862 0.64565259 0.0054910192 120 30
0.035337754 -0.21704012 0.64124048 0.0048757694 122 30
0.037943397 -0.21472785 0.63425863 0.0044332445 155 38
0.040886898 -0.21452527 0.63349688 0.003646275 177 44
0.043756213 -0.21398731 0.63173229 0.0039551598 167 41
0.046782576 -0.21423703 0.63227946 0.0037098916 169 42
0.049491111 -0.2130885 0.62868708 0.0040531247 164 41
0.052417036 -0.21295266 0.62806988 0.0042979424 147 36
0.055376969 -0.21296212 0.62786722 0.0049149808 118 29
0.058100823 -0.21210881 0.62510723 0.0062919827 103 25
0.060977396 -0.21186846 0.6241402 0.0064233593 99 24
0.063789636 -0.21143697 0.62259614 0.0060697556 92 23
0.066985719 -0.21225983 0.62472969 0.0075634089 79 19
nan nan nan 0 64 16
nan nan nan 0 55 13
nan nan nan 0 66 16
nan nan nan 0 70 17
nan nan nan 0 102 25
nan nan nan 0 182 45
0.083844356 -0.20311186 0.59542978 0.002688088 279 69
0.085091427 -0.19942361 0.58421916 0.0021580781 374 93
0.087564982 -0.19875172 0.58183652 0.0019488728 432 108
0.090252079 -0.19859074 0.58093387 0.0019051739 473 118
0.092946805 -0.19845566 0.58008951 0.0018045316 485 121
0.095557913 -0.1981549 0.57874364 0.0018450847 487 121
0.098130547 -0.19779347 0.57720363 0.0018320773 474 118
0.10106338 -0.19815794 0.57776308 0.0019002694 454 113
0.10353868 -0.19762982 0.57570112 0.0020105077 445 111
0.10560831 -0.19637464 0.57150662 0.0023560538 353 88
0.10649941 -0.19304632 0.56127214 0.0025732319 286 71
0.10535077 -0.18627499 0.54103696 0.0023496014 327 81
0.10585356 -0.18267818 0.53003389 0.0020905696 390 97
0.10706759 -0.18044846 0.52299649 0.0020233237 410 102
0.10933484 -0.1800552 0.52127105 0.0020806703 407 101
0.11102375 -0.17874841 0.51688766 0.0019328383 431 107
0.11282308 -0.17767262 0.51316142 0.001980565 424 106
0.11620519 -0.17908213 0.51659316 0.0024005217 354 88
0.12216664 -0.18432423 0.53103733 0.0027424546 292 73
0.12263519 -0.1812336 0.5214479 0.0023310352 338 84
0.12575133 -0.18210131 0.52323675 0.0023419498 340 85
0.13198769 -0.1873641 0.53761083 0.0024669566 312 78
nan nan nan 0 260 65
0.14674148 -0.20040606 0.57337236 0.0029149773 243 60
0.15218438 -0.20397082 0.5826965 0.0021736089 368 92
0.15987316 -0.21036035 0.60002786 0.0030186372 268 67
0.15941292 -0.2059906 0.58664256 0.0017457795 511 127
0.15947826 -0.20244211 0.57561433 0.0012333686 923 230
0.1648097 -0.20558549 0.58359927 0.0018629406 487 121
nan nan nan 0 199 49
0.17206234 -0.20744498 0.58691216 0.0013491872 723 180
0.17489667 -0.20738967 0.58575517 0.0010609718 1053 254
nan nan nan 0 548 137
0.18063498 -0.20736429 0.58365732 0.0012939981 810 202
0.18729125 -0.21163149 0.59462613 0.0018295061 486 121
0.18786035 -0.20899484 0.5861876 0.0016027715 573 143
0.19087169 -0.20911409 0.58549285 0.0020417813 433 108
0.19352931 -0.20884803 0.58372545 0.0013021434 798 199
0.1978524 -0.21036063 0.58693194 0.0015183471 631 157
0.20297405 -0.21266584 0.59234446 0.0023684418 340 85
0.20702179 -0.21379593 0.59448457 0.0028752484 278 69
0.21120249 -0.21502934 0.59692293 0.0033388759 225 56
0.21649647 -0.2173461 0.60237902 0.0039231577 189 47
0.22351676 -0.2213084 0.61239976 0.0048686308 147 36
0.22815968 -0.22284119 0.61571115 0.0043999134 145 36
0.22534172 -0.21714357 0.59910357 0.0039443206 179 44
0.22571716 -0.21463299 0.59136748 0.0026997228 271 67
0.22999774 -0.21585281 0.59396499 0.0025161179 287 71
0.23279768 -0.21566957 0.59275299 0.0025842409 282 70
nan nan nan 0 174 43
nan nan nan 0 100 25
nan nan nan 0 118 29
0.2413042 -0.21260847 0.58217126 0.003648198 183 45
0.24505989 -0.21330741 0.58371449 0.0037498761 202 50
0.2515513 -0.21634248 0.59171957 0.0045105526 162 40
0.25373051 -0.21564105 0.58957922 0.0039980011 166 41
0.25495067 -0.21415041 0.58536178 0.0033114345 228 57
0.25831726 -0.2144763 0.58618981 0.0033131873 209 52
nan nan nan 0 92 23
0.25572702 -0.20753944 0.5673427 0.0069959071 94 23
0.25696841 -0.20622258 0.56391454 0.0060549122 97 24
0.27080551 -0.21493165 0.5879882 0.0057718861 104 26
0.27318302 -0.21445478 0.58702105 0.0067544309 80 20
0.27675697 -0.21491735 0.58870345 0.0064988937 110 27
0.27852857 -0.21398531 0.58664149 0.0050139008 121 30
0.27972236 -0.21263374 0.5834986 0.0049000364 124 31
0.28367582 -0.21338628 0.58620143 0.0065203668 94 23
0.2781117 -0.20703796 0.56944972 0.0088768695 63 15
0.28017586 -0.20644028 0.56855923 0.0072488426 79 19
0.28450057 -0.20750345 0.57231039 0.007611576 78 19
0.28929058 -0.20888127 0.57700324 0.0066480697 86 21
0.29599762 -0.21160221 0.58548671 0.0086329021 65 16
0.29602188 -0.20953919 0.5807969 0.0073999711 84 21
0.29595846 -0.20745493 0.57608569 0.0065334206 88 22
0.2950654 -0.20483488 0.56991774 0.0065241079 89 22
0.29349762 -0.20180097 0.56261992 0.0075614625 88 22
-0.35983247 -0.21601902 0.62779564 0.012675799 55 13
-0.31970516 -0.19356588 0.56206983 0.01093745 53 13
nan nan nan 0 45 11
nan nan nan 0 36 9
-0.34126377 -0.21204273 0.6121791 0.007956651 77 19
-0.34119588 -0.21387209 0.61597532 0.0067060874 93 23
-0.34323967 -0.21706945 0.62363952 0.0073175547 78 19
-0.35048959 -0.22364634 0.64094096 0.008583758 68 17
-0.35237598 -0.22688903 0.64863729 0.011293306 49 12
-0.34501341 -0.22418126 0.63935238 0.013488508 38 9
nan nan nan 0 45 11
-0.32393008 -0.21440597 0.60864776 0.015141885 44 11
-0.32854724 -0.2195082 0.62175947 0.013864277 46 11
-0.28846911 -0.19456202 0.54993051 0.0093595469 58 14
nan nan nan 0 63 15
-0.32670066 -0.22461496 0.63235223 0.0095013967 54 13
-0.3250058 -0.22563446 0.63404787 0.0071462714 79 19
-0.32239601 -0.22603264 0.6340549 0.0070441458 86 21
-0.3216598 -0.22776543 0.63786316 0.0082394164 71 17
-0.32288373 -0.23093507 0.64574361 0.011943027 53 13
-0.31997946 -0.23118658 0.64552301 0.014062807 48 12
-0.28590927 -0.20869428 0.58195394 0.010259259 57 14
nan nan nan 0 53 13
nan nan nan 0 39 9
nan nan nan 0 72 18
-0.29041231 -0.22107165 0.61398864 0.0089288307 66 16
-0.28922173 -0.22255126 0.61767542 0.0078421533 75 18
-0.28540403 -0.22201964 0.61586183 0.0053194943 109 27
nan nan nan 0 74 18
-0.29657543 -0.23587845 0.65385711 0.010420035 62 15
-0.28758684 -0.23132052 0.64113694 0.0084807742 66 16
-0.26126614 -0.21255735 0.589136 0.0075869788 79 19
nan nan nan 0 75 18
-0.26407814 -0.21988387 0.6097042 0.0070113325 82 20
-0.25841057 -0.21771792 0.60395157 0.0048902384 129 32
-0.26307812 -0.22431204 0.62258774 0.0092563313 65 16
-0.26035005 -0.224684 0.62404525 0.0076248972 93 23
nan nan nan 0 52 13
-0.26432928 -0.23380144 0.65049344 0.0067703328 85 21
-0.25508901 -0.22847447 0.63633275 0.0066636475 93 23
nan nan nan 0 148 37
nan nan nan 0 92 23
nan nan nan 0 135 33
-0.24030323 -0.22666818 0.63455337 0.006196701 97 24
-0.22345468 -0.21361336 0.59889859 0.0067156586 100 25
-0.21730651 -0.21057093 0.59128773 0.0046733483 133 33
-0.21462625 -0.21085125 0.59303033 0.0038187143 183 45
nan nan nan 0 80 20
nan nan nan 0 157 39
nan nan nan 0 129 32
nan nan nan 0 251 62
nan nan nan 0 142 35
nan nan nan 0 211 52
nan nan nan 0 118 29
nan nan nan 0 114 28
nan nan nan 0 133 33
-0.19782142 -0.22554836 0.64557719 0.0065991059 95 23
nan nan nan 0 140 35
-0.18236464 -0.21482418 0.61702162 0.0021930772 379 94
-0.17956991 -0.21510062 0.61886841 0.002209652 374 93
-0.17575715 -0.21414611 0.61715543 0.0016783751 554 138
nan nan nan 0 166 41
nan nan nan 0 96 24
nan nan nan 0 125 31
-0.15036711 -0.19671242 0.5705452 0.0034355733 195 48
-0.14649905 -0.19524947 0.56715751 0.0033274759 203 50
-0.14280643 -0.19396883 0.56426775 0.0020484866 398 99
-0.13967744 -0.19341879 0.56347513 0.001779811 515 128
-0.13689852 -0.19334124 0.56403595 0.0017227861 514 128
-0.1346094 -0.19396634 0.5666278 0.001831321 476 119
-0.13318844 -0.1958942 0.57301426 0.0020812191 429 107
-0.13448003 -0.20197767 0.59156501 0.0022255904 356 89
-0.13145068 -0.2016941 0.59146714 0.0021819731 390 97
-0.12731269 -0.19965941 0.58620393 0.0020621645 430 107
-0.12472928 -0.20002581 0.58796257 0.0018885154 448 112
-0.12145174 -0.19927028 0.58640051 0.0019648378 455 113
-0.11874902 -0.19944447 0.58755106 0.0020027536 437 109
-0.11622248 -0.19993016 0.58960003 0.0020660246 421 105
-0.11347266 -0.20004633 0.59054005 0.0019864808 422 105
-0.11266883 -0.20368643 0.60187298 0.0020664055 400 100
-0.11012598 -0.20429075 0.60422689 0.0022798874 380 95
-0.10796375 -0.20565252 0.60880566 0.0021352067 376 94
-0.10472988 -0.20499177 0.60737878 0.0022024438 380 95
-0.10239865 -0.20611043 0.6112054 0.0023041717 355 88
-0.10004865 -0.2072555 0.61509597 0.0027188435 312 78
-0.096726179 -0.20639431 0.61301374 0.0025794897 297 74
-0.09412013 -0.20705584 0.61543483 0.0023441862 353 88
-0.091200508 -0.20704778 0.6158483 0.0019548165 426 106
-0.088151462 -0.20673564 0.61533856 0.0017516287 471 117
-0.084447943 -0.20481487 0.61001861 0.0018690969 445 111
-0.081451885 -0.20453477 0.60956371 0.0019083387 453 113
-0.078569993 -0.20453133 0.60991591 0.001967709 442 110
-0.076694682 -0.20724761 0.61836636 0.0018218785 477 119
-0.073134348 -0.20544538 0.61332023 0.0013949508 686 171
-0.070197098 -0.20531707 0.61325234 0.0012002625 874 218
-0.066741578 -0.20359679 0.60841113 0.0011274718 1028 254
-0.064347319 -0.20510475 0.61320138 0.0017171168 564 141
-0.061733622 -0.20602214 0.61621463 0.0021129691 401 100
-0.058840029 -0.20604989 0.61655337 0.0022129798 374 93
-0.055674471 -0.20507869 0.61388755 0.0024645682 316 79
-0.052878361 -0.20543656 0.61518568 0.0024705934 308 77
-0.050062764 -0.2057558 0.61635494 0.0029092154 248 62
-0.04800152 -0.20940503 0.62748986 0.0035275023 205 51
-0.046791151 -0.21748695 0.65190494 0.0047585727 160 40
-0.044141766 -0.21954402 0.65825623 0.0045718877 141 35
-0.040810328 -0.21826318 0.65458661 0.0048449878 140 35
-0.037279472 -0.21562023 0.64681578 0.0048643057 130 32
-0.034291286 -0.21592563 0.64787459 0.0049470952 128 32
-0.031099556 -0.21488406 0.64487869 0.0049268007 122 30
-0.028129138 -0.21531194 0.64627987 0.0044973288 138 34
-0.024955971 -0.21410379 0.64275748 0.0047691921 141 35
-0.021918038 -0.21388319 0.64218694 0.0044076033 148 37
-0.018903207 -0.2138537 0.642178 0.0040755807 161 40
-0.015837789 -0.21313223 0.64007896 0.0037515671 171 42
-0.012789035 -0.21235009 0.63778549 0.0039157057 180 45
-0.0098043792 -0.21247956 0.63821822 0.0033419963 194 48
-0.0067848791 -0.21163593 0.63571626 0.0032745483 223 55
-0.003819227 -0.21246602 0.63823026 0.0032140382 209 52
-0.00082756951 -0.21262173 0.6387068 0.0032354321 212 53
0.0021716843 -0.21309243 0.6401183 0.0034755606 203 50
0.0051993579 -0.21418773 0.64339423 0.0032045688 212 53
0.0082321316 -0.21461171 0.64464176 0.0032501847 233 58
0.011275616 -0.21501219 0.64580697 0.0029175405 255 63
0.014345166 -0.21563491 0.64762771 0.0026667174 269 67
0.017408883 -0.21596768 0.64856535 0.0028115667 268 67
0.020410132 -0.21554177 0.64721274 0.0028402444 271 67
0.023336643 -0.21453907 0.64411658 0.0035798263 200 50
0.026534326 -0.21597342 0.64832485 0.0045576133 134 33
0.029526897 -0.21561496 0.64713854 0.0067381617 97 24
0.032586005 -0.21576391 0.64746273 0.0077374582 72 18
0.035377018 -0.21426371 0.64282632 0.0078510186 74 18
0.038165625 -0.21298593 0.63884616 0.0068747113 81 20
0.040733531 -0.21075246 0.63198936 0.0050097811 115 28
0.043950118 -0.2119506 0.63541067 0.0056192931 112 28
0.046931073 -0.21193233 0.63517088 0.006659647 96 24
0.049800329 -0.21144201 0.6335035 0.0070823049 83 20
0.052658159 -0.21096118 0.63185185 0.0075671258 72 18
0.05583936 -0.21175806 0.6340127 0.0073037911 81 20
0.058780268 -0.21160907 0.63332665 0.0068034162 83 20
0.061564445 -0.21093747 0.63106287 0.0066658924 89 22
0.065031849 -0.21256086 0.63564903 0.0092953192 68 17
0.06874688 -0.21481512 0.64210147 0.012436013 47 11
nan nan nan 0 49 12
nan nan nan 0 66 16
nan nan nan 0 77 19
nan nan nan 0 114 28
nan nan nan 0 243 60
0.079851806 -0.19739448 0.58812219 0.0021891438 371 92
0.082217075 -0.19640371 0.58479869 0.0019249051 439 109
0.084761769 -0.19589218 0.58288831 0.0019819494 457 114
0.087325461 -0.19545539 0.58118492 0.0018015821 487 121
0.090057448 -0.19541042 0.58063054 0.0018282059 496 124
0.092763543 -0.19531365 0.57990474 0.0018182925 502 125
0.095344253 -0.19496606 0.57841712 0.0018785291 495 123
0.098128833 -0.1950431 0.57817161 0.0017938204 483 120
0.10076823 -0.19483529 0.57706314 0.0018913939 465 116
0.10339042 -0.19460608 0.57587337 0.0019112063 445 111
0.10546772 -0.19338958 0.57174659 0.002382539 348 87
0.10644904 -0.1902753 0.56200153 0.0027438637 288 72
0.1057064 -0.1843081 0.54383671 0.002353814 329 82
0.10604027 -0.18045889 0.53193158 0.0021826106 381 95
0.10727565 -0.17828821 0.52497333 0.0021205968 399 99
0.1085006 -0.17619984 0.51825207 0.002112742 406 101
0.11055204 -0.17551704 0.51565504 0.0020232943 431 107
0.11184435 -0.17368525 0.50967193 0.0019219032 437 109
0.11608329 -0.17640981 0.51703686 0.002234299 355 88
0.11871728 -0.17663227 0.51703852 0.0023084965 339 84
0.1199801 -0.17484741 0.5111509 0.002154659 403 100
0.12242847 -0.17482728 0.51041007 0.0020354923 406 101
0.12539811 -0.17553765 0.5117802 0.0022264409 376 94
nan nan nan 0 322 80
nan nan nan 0 265 66
0.15147044 -0.20019452 0.58113199 0.0017109944 488 122
0.15553275 -0.20180714 0.58491987 0.0016669395 540 135
0.15685849 -0.19987486 0.57841551 0.0012890836 849 212
0.16164936 -0.20234831 0.58463949 0.0015256372 583 145
nan nan nan 0 143 35
0.17314243 -0.20935352 0.60289359 0.0051525012 136 34
0.17431575 -0.20724306 0.5958094 0.0020395643 381 95
0.17966805 -0.21008874 0.60295635 0.0022878728 326 81
0.17733654 -0.20400292 0.58447421 0.0016371545 592 148
0.18012249 -0.20390426 0.58316702 0.0014625605 684 171
0.18461365 -0.20570882 0.58728743 0.0019302466 440 110
0.1876958 -0.20591186 0.58682126 0.0017645612 491 122
0.1918831 -0.20730262 0.58973056 0.0019188458 425 106
0.19330831 -0.20571239 0.58416265 0.0015621936 581 145
0.1973836 -0.20694764 0.58662564 0.0018720619 479 119
0.19971006 -0.20634003 0.58387089 0.001486824 637 159
0.20554878 -0.20932667 0.59128845 0.0022691689 374 93
0.20900314 -0.20983496 0.59170628 0.0025681129 299 74
0.21344323 -0.21130498 0.59484911 0.0034819795 211 52
0.22155252 -0.21631706 0.60796064 0.0044945627 140 35
0.23138395 -0.2228518 0.62533271 0.0050671604 134 33
nan nan nan 0 144 36
0.22828847 -0.2140633 0.59888101 0.0030782463 222 55
0.23198599 -0.21469513 0.59982002 0.0026410262 269 67
nan nan nan 0 188 47
nan nan nan 0 116 29
0.2573818 -0.22923474 0.63814515 0.0055576586 113 28
nan nan nan 0 174 43
0.24217178 -0.2104096 0.58465058 0.0027062816 296 74
0.24501109 -0.21030313 0.58391613 0.0023140395 332 83
0.24982692 -0.21187551 0.58791482 0.0027265474 288 72
0.24954446 -0.20913802 0.58003241 0.0025737307 278 69
nan nan nan 0 171 42
0.27597061 -0.22595139 0.62629932 0.005582144 110 27
0.27717113 -0.22434737 0.6218015 0.008140319 73 18
0.25614166 -0.20498899 0.56817961 0.0066642282 87 21
0.25632125 -0.20284645 0.56235111 0.0049044071 138 34
0.26564291 -0.20790619 0.57657146 0.006014246 109 27
0.26797548 -0.2074452 0.57556534 0.0067212787 90 22
0.27108806 -0.20759152 0.57632244 0.0066500991 90 22
0.28415376 -0.21527517 0.59809864 0.0051696012 116 29
0.28433707 -0.21313991 0.59268463 0.0047275471 123 30
0.28728509 -0.21310003 0.59316844 0.0062074852 94 23
0.27251935 -0.20005728 0.55749232 0.010446851 55 13
nan nan nan 0 60 15
0.28588289 -0.20561586 0.57448339 0.0091167698 63 15
0.29550028 -0.21040177 0.58872592 0.0071186456 72 18
0.29769778 -0.20986204 0.5881502 0.008860386 65 16
0.29730701 -0.20752616 0.5825907 0.0082273819 68 17
0.29827186 -0.2061729 0.57983243 0.0059907148 102 25
0.30182931 -0.20662044 0.58219254 0.007464685 89 22
0.30585539 -0.20737724 0.58548707 0.0059091737 99 24
-0.35385326 -0.20943771 0.61711437 0.0091396123 60 15
-0.34977648 -0.20879006 0.61441177 0.0099351779 61 15
nan nan nan 0 50 12
-0.34127063 -0.20724702 0.60742545 0.011811065 51 12
-0.3425189 -0.20982531 0.61352283 0.0084721837 84 21
-0.34496024 -0.21318638 0.6218127 0.01146974 46 11
-0.34851575 -0.21730204 0.63223529 0.012528802 46 11
-0.34945455 -0.21984549 0.63804781 0.0094595477 70 17
-0.35203117 -0.22347474 0.64699715 0.011122881 51 12
-0.34883657 -0.22347319 0.6454494 0.012842865 49 12
-0.32943848 -0.2129955 0.61376131 0.0099344952 56 14
-0.33001354 -0.21535623 0.61917204 0.012393199 44 11
-0.33056509 -0.21774594 0.62468922 0.011907555 44 11
-0.32664198 -0.21720554 0.62184495 0.0096401256 65 16
-0.32352662 -0.21719702 0.62058532 0.010345885 60 15
-0.32616824 -0.22109067 0.63051522 0.011143256 47 11
-0.32540721 -0.22273149 0.63405526 0.0078001171 71 17
-0.32015613 -0.221301 0.62891799 0.0063697342 91 22
-0.31482556 -0.21978655 0.6236248 0.0067895106 86 21
-0.32111672 -0.2264367 0.64154798 0.0091249812 62 15
-0.32057819 -0.22835717 0.64611125 0.010265716 56 14
-0.30319148 -0.21819226 0.61658692 0.0087060984 62 15
-0.29919511 -0.21755274 0.61409485 0.0091491183 62 15
nan nan nan 0 52 13
-0.29353413 -0.21796438 0.61412352 0.0072219032 79 19
-0.292059 -0.21919405 0.61714208 0.0089083044 71 17
-0.29479417 -0.22364447 0.62930357 0.0091539491 72 18
nan nan nan 0 106 26
nan nan nan 0 91 22
-0.29231367 -0.22921465 0.6443857 0.0099675804 67 16
-0.29269773 -0.23211576 0.65252715 0.0090198759 71 17
nan nan nan 0 92 23
-0.2756446 -0.22365952 0.62899423 0.0078097205 80 20
nan nan nan 0 81 20
nan nan nan 0 100 25
-0.26932666 -0.22640567 0.63773978 0.0076569347 76 19
-0.2630558 -0.22382188 0.63096416 0.0057668444 100 25
nan nan nan 0 50 12
-0.25954205 -0.22633398 0.63929468 0.0084450683 65 16
-0.25307241 -0.22347598 0.63194561 0.0084698601 68 17
nan nan nan 0 76 19
nan nan nan 0 101 25
nan nan nan 0 103 25
-0.2289784 -0.21294409 0.60549742 0.0053442973 124 31
-0.22515 -0.21220276 0.60433912 0.0048360452 129 32
-0.2185287 -0.20877299 0.59554225 0.0046851751 153 38
-0.21427086 -0.20753747 0.59301454 0.0032937108 200 50
nan nan nan 0 115 28
nan nan nan 0 241 60
-0.21931885 -0.22162595 0.63661301 0.0045616832 139 34
nan nan nan 0 162 40
-0.21275565 -0.22138508 0.63822222 0.0046869158 136 34
-0.20019026 -0.21145307 0.61069733 0.0040629506 154 38
-0.19636999 -0.2105954 0.6093244 0.0041672066 172 43
nan nan nan 0 114 28
nan nan nan 0 112 28
nan nan nan 0 123 30
nan nan nan 0 161 40
-0.18254685 -0.21201032 0.61887997 0.0018650303 460 115
-0.17944133 -0.21191935 0.6196695 0.0017941897 491 122
-0.17650191 -0.21202479 0.62101656 0.0023402737 354 88
-0.18176971 -0.22216511 0.65178645 0.0042051994 151 37
nan nan nan 0 131 32
-0.16673341 -0.21116059 0.62147427 0.0043955548 154 38
-0.15033135 -0.19389586 0.57153845 0.0041997684 149 37
-0.14619349 -0.19209814 0.56708753 0.0031400269 213 53
-0.14302279 -0.19152682 0.56622589 0.0020652895 391 97
-0.14052895 -0.19185729 0.56800824 0.0020015971 439 109
-0.13733964 -0.1912325 0.56693983 0.0018485003 490 122
-0.13476899 -0.19146129 0.56837887 0.0018130956 478 119
-0.13276808 -0.19252577 0.57228202 0.0019257263 442 110
-0.13422467 -0.19875494 0.59154296 0.0023105654 371 92
-0.1313618 -0.19871907 0.59215844 0.0022259327 357 89
-0.12789337 -0.19774531 0.58995289 0.0021505856 398 99
-0.12429172 -0.19651692 0.58695811 0.0019338432 432 108
-0.12131843 -0.19624822 0.58680278 0.0018823063 453 113
-0.11827201 -0.19584571 0.58622378 0.0018567292 459 114
-0.11571389 -0.19625187 0.58804399 0.0019052633 452 113
-0.11323321 -0.19681275 0.5903098 0.0019868277 447 111
-0.11061311 -0.19715373 0.59189802 0.0020431029 416 104
-0.10898671 -0.19932994 0.59898263 0.002186442 395 98
-0.10713404 -0.20119798 0.60513169 0.0021064519 384 96
-0.10475971 -0.20216231 0.60855025 0.0021901152 363 90
-0.10174917 -0.20191883 0.60831493 0.0022347665 349 87
-0.098181874 -0.20052396 0.60458767 0.0021768452 366 91
-0.095085703 -0.20003641 0.60357267 0.0020919461 391 97
-0.092078991 -0.19971268 0.60303175 0.002101195 388 97
-0.090478539 -0.20251583 0.61191958 0.0020667131 395 98
-0.087357685 -0.2019887 0.61073154 0.0021970687 405 101
-0.084321722 -0.20162854 0.61002916 0.0020526976 423 105
-0.081178702 -0.20097786 0.60842896 0.0019831746 444 111
-0.077991933 -0.20016722 0.60632527 0.0018398734 468 117
-0.074929155 -0.19962513 0.60501671 0.0019351464 481 120
-0.072679721 -0.20129284 0.61039144 0.0017869286 489 122
-0.069952101 -0.201719 0.6119892 0.0017757603 501 125
-0.067231923 -0.20220417 0.61375189 0.0018945745 481 120
-0.064403862 -0.20239384 0.61460394 0.0018472469 465 116
-0.061573658 -0.20259431 0.6154747 0.0018466351 472 118
-0.058638413 -0.20245187 0.61528957 0.0018602065 464 116
-0.055492844 -0.20153084 0.61272287 0.0018710045 474 118
-0.052654944 -0.20168753 0.6134184 0.0019354292 472 118
-0.049769703 -0.2016705 0.61357242 0.0020049647 442 110
-0.047112904 -0.20263393 0.61669719 0.0021580844 383 95
-0.04427829 -0.20290861 0.61771417 0.0022786336 349 87
-0.041384038 -0.20292936 0.61794567 0.0023694129 355 88
-0.038491204 -0.20296073 0.6181972 0.0022735463 358 89
-0.035634939 -0.2032057 0.61908728 0.0026361449 320 80
-0.033194136 -0.20607339 0.6279577 0.0028220068 266 66
-0.031198027 -0.21252854 0.64775378 0.0033858155 229 57
-0.027955374 -0.21096824 0.64311081 0.0037306757 209 52
-0.024893051 -0.21055624 0.64195526 0.003851539 180 45
-0.02187752 -0.21048115 0.64181489 0.0041143228 168 42
-0.018790951 -0.20958981 0.63917357 0.0045528915 166 41
-0.015710503 -0.20844176 0.63573718 0.0042818738 178 44
-0.012757232 -0.20883882 0.63700157 0.0035854573 190 47
-0.0097631998 -0.20860723 0.63633746 0.0033030433 211 52
-0.006651768 -0.2045618 0.62402749 0.0027611542 270 67
-0.0036963564 -0.20273465 0.61847287 0.0028191791 259 64
-0.00080636283 -0.20425549 0.62312096 0.0031276534 251 62
0.0021253817 -0.205612 0.62725681 0.0030775508 257 64
0.0050366907 -0.20456451 0.62404788 0.0029712811 265 66
0.0079280743 -0.20377406 0.62161231 0.0030909339 262 65
0.010813411 -0.2032945 0.62011433 0.0028260995 268 67
0.013717899 -0.2033018 0.6200906 0.0029102187 264 66
0.016635261 -0.20346399 0.62052822 0.0028135984 254 63
0.019545758 -0.2035065 0.62058979 0.003213367 240 60
0.022834493 -0.20696627 0.63105947 0.0036410529 187 46
nan nan nan 0 132 33
0.028559396 -0.20561282 0.62673783 0.0067155226 95 23
0.032076254 -0.20939748 0.63815695 0.0073813442 78 19
0.035553131 -0.21229774 0.64686477 0.0096589057 62 15
0.038366795 -0.21109314 0.6430518 0.010159904 61 15
0.0413156 -0.21075349 0.64186221 0.0095357085 57 14
0.044093393 -0.20964682 0.63832498 0.0092689265 63 15
0.0469773 -0.20915338 0.63664317 0.0083384439 67 16
0.04989076 -0.20884269 0.63550538 0.0087913014 69 17
0.053067364 -0.20960639 0.63762295 0.0076637124 72 18
0.056445047 -0.21104033 0.64176351 0.0079224976 74 18
0.058859788 -0.20891111 0.63505548 0.0067533306 89 22
0.061702501 -0.20843309 0.63335544 0.006215753 99 24
0.064796738 -0.20880957 0.63423759 0.0061624642 102 25
0.069550253 -0.21426472 0.65052307 0.00632085 99 24
0.073419809 -0.21665154 0.65746677 0.0058410731 108 27
nan nan nan 0 119 29
nan nan nan 0 183 45
nan nan nan 0 309 77
0.07675115 -0.19380479 0.58690321 0.0020632001 420 105
0.079224437 -0.19308543 0.58437961 0.0018668328 469 117
0.081937738 -0.19297977 0.58369887 0.0018447079 461 115
0.084578924 -0.1927167 0.58252615 0.0018811083 490 122
0.087164991 -0.19234854 0.5810203 0.0017495079 500 125
0.089874811 -0.19226764 0.5803659 0.0017869615 524 131
0.092626043 -0.19227751 0.57996821 0.001774108 519 129
0.095220201 -0.19197012 0.57859641 0.001735037 515 128
0.098088145 -0.19221649 0.57887542 0.0017659616 501 125
0.10083088 -0.19221073 0.57837594 0.0019193696 467 116
0.10334025 -0.19177224 0.5765565 0.0019120937 461 115
0.10621598 -0.1920187 0.57677746 0.0023125447 341 85
0.10656984 -0.18780842 0.56360292 0.0026063437 285 71
0.10528839 -0.18099381 0.54262501 0.0023814831 324 81
0.10519196 -0.17649409 0.52860153 0.0021230332 379 94
0.10755321 -0.17623205 0.52726537 0.002117465 385 96
0.10905573 -0.17460714 0.52183855 0.0022124748 395 98
0.10985152 -0.17194864 0.51331758 0.0020301472 439 109
0.1116732 -0.17097712 0.50982583 0.0018950455 450 112
0.11513103 -0.17249858 0.5137465 0.0023146463 377 94
0.11720098 -0.1719204 0.51139122 0.0022108606 375 93
0.11771613 -0.1691321 0.50245476 0.0018881768 448 112
0.12028282 -0.16934428 0.50242293 0.0018540677 467 116
0.12295873 -0.16969879 0.50279182 0.0019230512 445 111
0.12554437 -0.16991743 0.50273693 0.0022057963 396 99
nan nan nan 0 307 76
nan nan nan 0 304 76
nan nan nan 0 413 103
nan nan nan 0 268 67
nan nan nan 0 128 32
0.17681776 -0.2144381 0.62865776 0.0069619752 90 22
0.17573479 -0.20949544 0.61315119 0.004908429 131 32
0.17359251 -0.20347662 0.59453094 0.002527792 278 69
0.17845494 -0.20573141 0.60008818 0.0027062299 263 65
0.17691718 -0.20065422 0.58425951 0.0016491087 547 136
0.18120137 -0.20223674 0.58782858 0.0016806943 533 133
0.18488224 -0.20310678 0.58930463 0.0021377816 374 93
0.19110413 -0.20669831 0.59864688 0.0026553471 294 73
0.19382985 -0.20645663 0.59686559 0.002854622 238 59
0.19457567 -0.20414494 0.58911204 0.0022109088 351 87
0.1960488 -0.20265329 0.58374757 0.0016068423 567 141
0.20089257 -0.20463857 0.58840168 0.0017074634 513 128
0.20482633 -0.20565321 0.59025949 0.0019214333 472 118
0.20792633 -0.2058139 0.58967471 0.0022788844 393 98
0.21167886 -0.20660697 0.5909158 0.0027123236 263 65
0.22518174 -0.21676409 0.61890936 0.0043086465 151 37
0.23058918 -0.21895856 0.62413764 0.0061345217 112 28
0.22484265 -0.21064468 0.59947526 0.0050038779 121 30
0.2257612 -0.2087121 0.59305942 0.0035480219 185 46
0.23349316 -0.21304666 0.60448629 0.003915356 163 40
0.24116673 -0.2172171 0.61546314 0.0048131379 139 34
0.24507052 -0.21792933 0.61667842 0.004866817 123 30
0.25033668 -0.21981995 0.62128061 0.0063775885 100 25
0.25207114 -0.21860103 0.61715788 0.0037736753 167 41
0.25118816 -0.21516977 0.60687292 0.0031347363 241 60
0.25072461 -0.2121764 0.59791273 0.0027447708 265 66
0.25196746 -0.21068138 0.59326059 0.0027554478 284 71
nan nan nan 0 227 56
0.27111229 -0.2214004 0.62276793 0.0049411422 136 34
0.28061047 -0.22651459 0.6369381 0.0069609829 97 24
0.28474501 -0.22723186 0.63882858 0.0079702875 83 20
0.26043031 -0.20548588 0.57766038 0.004787467 120 30
0.26230678 -0.20465973 0.57538724 0.0035518897 206 51
0.26519129 -0.20462966 0.57543385 0.0038283947 189 47
0.26730868 -0.20401475 0.57391655 0.00344308 201 50
0.27007362 -0.20390201 0.57389164 0.0040451805 169 42
0.28775704 -0.21493474 0.60533547 0.0056778584 105 26
0.29246131 -0.21614233 0.60921311 0.0061283377 94 23
0.29417875 -0.21514036 0.60694426 0.0096284905 62 15
nan nan nan 0 48 12
nan nan nan 0 70 17
0.28181738 -0.19983722 0.56575245 0.0080630668 79 19
0.29320025 -0.20582397 0.58352369 0.0086994292 66 16
0.29454353 -0.20471413 0.58126229 0.0088685909 79 19
0.2946189 -0.20275357 0.57663655 0.0080864774 75 18
0.30016267 -0.20455781 0.58278024 0.0063270126 93 23
0.30575854 -0.20636243 0.58900434 0.0063995062 95 23
0.31429732 -0.21009982 0.60083407 0.0088477572 73 18
-0.35249165 -0.2056516 0.61432117 0.0090965163 63 15
-0.34746814 -0.20444936 0.60972214 0.011036293 49 12
nan nan nan 0 45 11
-0.34711811 -0.20778695 0.61695647 0.0094396044 56 14
-0.34783328 -0.21003708 0.62210822 0.012382822 53 13
nan nan nan 0 30 7
-0.3543871 -0.2178065 0.64189309 0.017632255 34 8
-0.35849741 -0.22231273 0.65355307 0.010667509 52 13
-0.35545751 -0.2224265 0.65230411 0.0094895009 59 14
-0.34569049 -0.21829434 0.63867694 0.01049646 51 12
-0.32754913 -0.20874883 0.60935426 0.012009316 45 11
-0.32604489 -0.20972714 0.61086053 0.010534829 52 13
-0.33237705 -0.21581201 0.62725127 0.010601807 58 14
-0.32939053 -0.21590438 0.62624562 0.010081395 51 12
-0.32054552 -0.21212171 0.61408228 0.010558035 57 14
-0.32542774 -0.21743773 0.62831479 0.0094662197 62 15
-0.32127222 -0.21675999 0.62526917 0.0096685514 63 15
-0.315696 -0.21510091 0.61947274 0.0087018209 63 15
nan nan nan 0 59 14
-0.32350057 -0.22485907 0.64568633 0.010582642 56 14
-0.31640348 -0.22216389 0.63712907 0.0096365716 63 15
-0.3022556 -0.21441157 0.61418474 0.010156306 53 13
-0.3020142 -0.21646562 0.61942965 0.0095565869 64 16
nan nan nan 0 68 17
-0.29780066 -0.21797369 0.62270856 0.010554676 63 15
-0.2927388 -0.21656583 0.61829942 0.0077985278 74 18
nan nan nan 0 66 16
nan nan nan 0 74 18
nan nan nan 0 70 17
-0.2911391 -0.22503254 0.64177758 0.0115628 46 11
-0.28350192 -0.22161175 0.63207895 0.0086860796 62 15
-0.26886949 -0.21258183 0.60646594 0.0092020454 60 15
-0.27023491 -0.21613787 0.61684293 0.0089510633 64 16
-0.26481456 -0.21428631 0.61187428 0.0093516884 63 15
nan nan nan 0 78 19
nan nan nan 0 64 16
nan nan nan 0 84 21
-0.24453847 -0.20761761 0.59483701 0.010706849 66 16
nan nan nan 0 143 35
nan nan nan 0 92 23
-0.23653559 -0.2085197 0.59965962 0.0045661065 138 34
-0.23565292 -0.21042985 0.60602236 0.0039479481 178 44
-0.23418628 -0.21186182 0.61107183 0.0047565349 146 36
-0.23391527 -0.21442787 0.6194554 0.0037316408 174 43
nan nan nan 0 119 29
-0.21903597 -0.20626844 0.59788364 0.004207632 149 37
-0.21456614 -0.2048548 0.59482336 0.0046954141 141 35
nan nan nan 0 102 25
nan nan nan 0 179 44
nan nan nan 0 160 40
nan nan nan 0 169 42
-0.20307942 -0.20829777 0.61034811 0.0021023657 419 104
-0.19854999 -0.20672473 0.60685587 0.0017603156 528 132
-0.19501501 -0.20615472 0.60629421 0.0017168829 540 135
nan nan nan 0 143 35
nan nan nan 0 98 24
nan nan nan 0 103 25
nan nan nan 0 126 31
nan nan nan 0 120 30
nan nan nan 0 135 33
-0.1872438 -0.22171558 0.66011357 0.0048602582 130 32
-0.18199043 -0.21925746 0.65386277 0.0051966901 120 30
-0.16560704 -0.20306449 0.60654104 0.0044451342 144 36
-0.16226573 -0.20256694 0.60599971 0.0027444591 267 66
-0.15738109 -0.20008895 0.59949797 0.0032881624 214 53
-0.14491704 -0.18770081 0.56321526 0.0032013874 224 56
-0.14326583 -0.18911174 0.56826776 0.0019910466 410 102
-0.1405846 -0.18919155 0.569305 0.0019935118 437 109
-0.1377569 -0.18907355 0.56972474 0.0019343658 429 107
-0.1350545 -0.18912618 0.57063639 0.0018422096 458 114
-0.13263409 -0.18958409 0.57275063 0.0019423589 447 111
-0.13223211 -0.19300745 0.58381629 0.0022039972 402 100
-0.13009366 -0.19398947 0.5874911 0.0020609228 396 99
-0.12778255 -0.19475171 0.59048432 0.0021589641 371 92
-0.12498642 -0.19479243 0.59127033 0.0022264689 375 93
-0.12175044 -0.19413373 0.58990932 0.0020519078 395 98
-0.11837807 -0.19322123 0.58775038 0.0022175715 394 98
-0.11555984 -0.19319095 0.58825058 0.0020458009 396 99
-0.11352057 -0.1944937 0.59279263 0.002037649 402 100
-0.11114959 -0.19528005 0.59574604 0.0021537975 369 92
-0.10890649 -0.19633798 0.59951282 0.0022633795 353 88
-0.10641276 -0.19698873 0.60202062 0.0023673736 355 88
-0.10326185 -0.19642529 0.60079825 0.0023103321 374 93
-0.099921584 -0.19545947 0.59832191 0.0022395994 386 96
-0.097158439 -0.1955992 0.59920871 0.0020903696 387 96
-0.094329335 -0.19561048 0.59968394 0.002136165 407 101
-0.091355383 -0.19531284 0.59919357 0.0019352587 434 108
-0.088829465 -0.19598462 0.60166019 0.0019824484 433 108
-0.087098777 -0.19851325 0.60981625 0.0021856558 411 102
-0.084129587 -0.19829547 0.60952306 0.0020936762 406 101
-0.081178673 -0.1981069 0.60930216 0.0019754719 422 105
-0.077901587 -0.19707933 0.60648239 0.0018628264 460 115
