# .PCD v0.7 - Point Cloud Data file format
VERSION 0.7
FIELDS x y z noise intensity gray
SIZE 4 4 4 4 2 1
TYPE F F F F U U
COUNT 1 1 1 1 1 1
WIDTH 930
HEIGHT 1
VIEWPOINT 0 0 0 1 0 0 0
POINTS 930
DATA ascii
nan nan nan 0 95 21
-0.36554947 -0.13805963 0.69709289 0.0070294221 86 19
nan nan nan 0 108 24
nan nan nan 0 92 20
nan nan nan 0 139 31
nan nan nan 0 87 19
nan nan nan 0 101 22
nan nan nan 0 121 27
nan nan nan 0 52 11
nan nan nan 0 67 15
-0.31050962 -0.12846763 0.6567052 0.0043924362 152 34
-0.30760324 -0.12862958 0.65891021 0.0043199095 150 34
-0.30664337 -0.12961778 0.66542447 0.0064313649 95 21
-0.31650943 -0.13525389 0.69593084 0.0093137901 62 14
-0.31368521 -0.13553189 0.69898266 0.010695876 60 13
-0.31757861 -0.13875104 0.71728194 0.0088968864 72 16
-0.31758133 -0.14032401 0.72715741 0.0057703997 114 25
-0.33613145 -0.15022217 0.7803359 0.0042592841 161 36
-0.333639 -0.1508365 0.78543133 0.0040657404 172 39
nan nan nan 0 175 39
nan nan nan 0 161 36
nan nan nan 0 150 34
-0.27160823 -0.12876248 0.67694205 0.0059937756 106 24
nan nan nan 0 177 40
nan nan nan 0 118 26
nan nan nan 0 144 32
nan nan nan 0 158 35
nan nan nan 0 308 70
nan nan nan 0 103 23
nan nan nan 0 196 44
nan nan nan 0 371 84
-0.15583882 -0.082953222 0.44451323 0.0014967863 705 160
-0.15373532 -0.082965754 0.44539696 0.0013172968 808 183
-0.15026231 -0.08222919 0.44222653 0.0013413866 849 193
-0.14843383 -0.082384422 0.44382101 0.0013352128 785 178
-0.14724331 -0.082903326 0.44735509 0.001386721 752 171
-0.14399053 -0.082259305 0.44458729 0.0013090573 810 184
-0.14151722 -0.082048051 0.44412589 0.0012351759 910 207
-0.13894393 -0.081771582 0.44328249 0.0012003159 932 212
-0.13896351 -0.083035983 0.45077512 0.0012861254 889 202
-0.13936432 -0.084571064 0.45973352 0.001382678 778 177
-0.13721356 -0.0845818 0.46039239 0.0013915156 778 177
-0.13389514 -0.083861582 0.45704341 0.0012534531 869 197
-0.13135456 -0.083612971 0.45623466 0.0012046023 971 221
-0.12936743 -0.083714232 0.45731112 0.0012182348 952 216
-0.12737589 -0.083816037 0.4583694 0.001221868 954 217
-0.12586458 -0.084242746 0.46118551 0.0012220177 900 204
-0.12487578 -0.085040197 0.46601668 0.0012813782 836 190
-0.12233178 -0.084788077 0.46507806 0.0012744643 846 192
-0.1230192 -0.08680702 0.47658497 0.001396553 762 173
-0.12217558 -0.087800123 0.48245424 0.0014213594 710 161
-0.12132296 -0.088823915 0.4884814 0.0015251738 676 153
-0.11934116 -0.089044355 0.49007666 0.0015145594 643 146
-0.11693564 -0.088951066 0.48992661 0.0015794632 656 149
-0.1149603 -0.089187816 0.49157637 0.0015691172 649 147
-0.11324725 -0.08964178 0.49440822 0.0014991163 648 147
-0.11097276 -0.08966095 0.49482626 0.0015412737 640 145
-0.10886171 -0.089815773 0.49597672 0.0014981444 649 147
-0.10645625 -0.08972913 0.49577773 0.0014916615 648 147
-0.10413989 -0.089715406 0.49596572 0.0014690707 672 153
-0.10326075 -0.090967201 0.50313812 0.0015032766 654 148
-0.10117966 -0.091193505 0.50462788 0.0015195764 675 153
-0.098574974 -0.090947449 0.50348961 0.0014875749 701 159
-0.097139046 -0.091793917 0.50838745 0.001509686 685 155
-0.095867597 -0.092841692 0.51439112 0.0015084323 682 155
-0.094318844 -0.093667455 0.51915604 0.001498227 652 148
-0.094021946 -0.095812045 0.53122413 0.0015930466 603 137
-0.09258081 -0.096874371 0.53728545 0.0016544568 559 127
-0.089170031 -0.095877483 0.53191459 0.0016084361 582 132
-0.086887993 -0.09607213 0.53314179 0.0016635571 612 139
-0.084538996 -0.096201941 0.53399932 0.0015954308 593 135
-0.082183249 -0.096331641 0.53484648 0.0016297291 571 130
-0.07967671 -0.096287131 0.53471714 0.0016081393 578 131
-0.077027075 -0.096061327 0.53357178 0.0017777194 560 127
-0.074336544 -0.095767923 0.53204167 0.0016324366 571 130
-0.071704037 -0.095531791 0.5308212 0.0016056087 576 131
-0.06937243 -0.095694013 0.53180671 0.0016388692 572 130
-0.067183524 -0.096072212 0.53398573 0.0016473425 558 127
-0.065505512 -0.09723755 0.54053426 0.001684088 537 122
-0.063220404 -0.097558275 0.54238242 0.0016913289 543 123
-0.062261038 -0.1000355 0.55621547 0.0017268102 523 119
-0.060420685 -0.10124928 0.56301993 0.0017810444 497 113
-0.058173452 -0.1018596 0.56646436 0.0017534575 511 116
-0.055769734 -0.10224042 0.56862783 0.001908764 486 110
-0.053121518 -0.10218846 0.56837982 0.0019120913 473 107
-0.050476205 -0.10213698 0.56813014 0.0018528034 466 106
-0.046702236 -0.099671111 0.55444574 0.0018853382 486 110
-0.044120107 -0.099610634 0.55413753 0.0018890109 495 112
-0.041530047 -0.099523693 0.55367875 0.0017560662 519 118
-0.038956627 -0.099467859 0.5533902 0.0018121969 535 121
-0.036588013 -0.099963769 0.5561685 0.0017256801 542 123
-0.033835296 -0.099405922 0.55308157 0.0017540361 553 125
-0.031243619 -0.099268846 0.55233341 0.0016335069 569 129
-0.028731301 -0.099381961 0.5529753 0.0016563088 566 128
-0.026237091 -0.099585839 0.55412054 0.0017553023 559 127
-0.023734558 -0.099798657 0.55531394 0.0016422268 558 127
-0.021197787 -0.09990155 0.55589426 0.001663016 553 125
-0.018546393 -0.099418305 0.55321175 0.0017579986 544 123
-0.016136007 -0.10027883 0.55800557 0.001672625 548 124
-0.013628915 -0.10075063 0.56063533 0.0017210684 523 119
-0.011202821 -0.10218188 0.56860322 0.0017787438 502 114
-0.0085348198 -0.10160692 0.5654065 0.0017827948 512 116
-0.0059225722 -0.10148212 0.56471395 0.0017732969 505 114
-0.0033174646 -0.10137998 0.5641467 0.0017532653 521 118
-0.00071635382 -0.10110267 0.56260413 0.0016786142 542 123
0.0018614786 -0.10033704 0.55834347 0.0017158458 523 119
0.0044274232 -0.10019079 0.55752891 0.0017399226 546 124
0.0069577023 -0.099641159 0.55446887 0.0016560074 556 126
0.009493554 -0.099445127 0.55337578 0.0016666164 548 124
0.012106647 -0.099969894 0.55629301 0.0017045413 534 121
0.014747112 -0.10049783 0.55922681 0.0018182946 507 115
0.017388096 -0.10087176 0.5613026 0.0019469196 483 109
0.020004287 -0.10102364 0.5621419 0.0018051646 482 109
0.022614488 -0.10111392 0.56263703 0.0017909601 489 111
0.025197191 -0.10107531 0.56241363 0.0018520602 504 114
0.02785063 -0.1013012 0.5636605 0.0018748562 497 113
0.030460348 -0.1013431 0.56388181 0.0018423686 487 110
0.033014748 -0.10120883 0.56312114 0.0018610882 484 110
0.035538569 -0.10100721 0.56198353 0.0018060989 496 112
0.037821881 -0.10019584 0.55745125 0.0017264578 516 117
0.040194098 -0.0997082 0.55471778 0.001737345 547 124
0.042677108 -0.099537291 0.55374372 0.0016937497 540 122
0.045215741 -0.099508099 0.55355495 0.0017604585 550 125
0.047831394 -0.09964247 0.55427265 0.0016933513 530 120
0.050332852 -0.099537365 0.55365443 0.0017828866 493 112
0.053030156 -0.099811025 0.55513901 0.001830771 471 107
0.054955229 -0.098672941 0.54876745 0.001739501 518 117
0.057207946 -0.098197423 0.54607695 0.0018159999 517 117
0.059574682 -0.09794946 0.5446471 0.0018168841 505 114
0.061446689 -0.096941054 0.53898406 0.001759889 506 115
0.063231394 -0.095878661 0.53301644 0.001724163 521 118
0.065730087 -0.0959379 0.53327888 0.001908094 480 109
0.065792084 -0.09256462 0.51445752 0.0018262867 519 118
0.06627512 -0.089997962 0.50011706 0.0017074564 562 127
0.067729115 -0.088878162 0.49381325 0.0016198783 575 130
0.068964496 -0.08755371 0.48636752 0.001593904 588 133
0.070733085 -0.08696834 0.4830218 0.0016249574 579 131
0.072382778 -0.086277038 0.47908133 0.0016922414 589 134
0.074460194 -0.086121447 0.47810829 0.0015884356 595 135
0.076653436 -0.086104922 0.47789884 0.0016805161 574 130
0.078886196 -0.086132474 0.47792485 0.0017060635 574 130
0.081110306 -0.086149327 0.47788188 0.0016804996 550 125
0.083298467 -0.086128138 0.47761777 0.0016432272 564 128
0.086462535 -0.087091021 0.48279849 0.0016610547 550 125
0.088831767 -0.087224968 0.48337072 0.0016688294 552 125
0.091243416 -0.087392986 0.4841195 0.0016407383 564 128
0.096280903 -0.09000767 0.49840337 0.0017572648 528 120
0.099440061 -0.090785131 0.50249302 0.0017507052 518 117
0.10187999 -0.090885408 0.50281864 0.0018366337 509 115
0.10464758 -0.091266982 0.50468493 0.0018152595 512 116
0.10678467 -0.091093987 0.50346893 0.001733719 531 120
0.10986865 -0.091718875 0.50664586 0.0017676048 554 126
0.11184717 -0.091414064 0.50467008 0.0016319959 567 129
0.1146958 -0.091818333 0.50659174 0.001647633 564 128
0.11690556 -0.091705166 0.50564003 0.0016496254 558 127
0.11918765 -0.091652095 0.50500214 0.0016290564 575 130
0.12142733 -0.091569103 0.50418133 0.0015835065 595 135
0.12372869 -0.091534868 0.50361025 0.001688493 551 125
0.12560019 -0.091189831 0.50131077 0.001692565 540 122
0.12766041 -0.090991922 0.4998022 0.0015812233 596 135
0.12749726 -0.089244805 0.48977253 0.0014743356 664 151
0.12930015 -0.088911206 0.48748904 0.0014960031 703 160
0.13174079 -0.089020111 0.4876112 0.0013968106 722 164
0.13327295 -0.088521883 0.48438758 0.0014561835 731 166
0.13527331 -0.088346101 0.48290938 0.0014076715 714 162
0.13793921 -0.088603623 0.48377571 0.0013961875 730 166
0.14034969 -0.088691406 0.4836891 0.0015417039 648 147
0.14305538 -0.08895994 0.48456135 0.0016214811 573 130
0.14131442 -0.086498283 0.47055253 0.0015329288 629 143
0.14113782 -0.085055426 0.46208853 0.001445403 716 163
0.14316504 -0.084964387 0.46095476 0.0013975723 729 165
0.14526525 -0.084918752 0.4600431 0.00141135 712 162
0.14793642 -0.085203283 0.46089247 0.0014771821 684 155
0.15040405 -0.085364044 0.4610424 0.0014959027 652 148
0.15086415 -0.084397107 0.45508263 0.0014840234 698 158
0.15307099 -0.084420875 0.45444685 0.001464691 733 166
0.15524577 -0.084426537 0.4536871 0.0014135957 757 172
0.15665856 -0.084023364 0.450708 0.0013628941 786 178
0.15832207 -0.083763771 0.44847956 0.0013255387 792 180
0.16112533 -0.084106065 0.44944727 0.0013135823 815 185
0.16290142 -0.083910234 0.44751266 0.0012751716 845 192
0.1647315 -0.083746962 0.44573095 0.0012582269 869 197
0.16687243 -0.083743855 0.44478017 0.0012638766 858 195
0.16892375 -0.083696462 0.44357213 0.0012470308 882 200
0.1709244 -0.083625451 0.44221926 0.0012691193 858 195
0.17291114 -0.083549477 0.44082257 0.0012920653 858 195
0.17506668 -0.083555944 0.43984428 0.0012288615 895 203
0.17624967 -0.083103679 0.4364416 0.0012079381 940 214
0.17815611 -0.082999252 0.43486032 0.0011859575 958 218
0.17981228 -0.082782067 0.43268329 0.0012318097 932 212
0.18210937 -0.082861587 0.4320533 0.0012273168 897 204
0.18408629 -0.082795262 0.43066117 0.0012529908 863 196
0.18642524 -0.082891427 0.43011668 0.0013235763 794 180
0.18925166 -0.083199732 0.43067595 0.0014706957 726 165
0.19221112 -0.083558992 0.43150386 0.0014378999 702 159
0.1909938 -0.082114592 0.4230496 0.0013683112 781 177
0.19267525 -0.081934385 0.42115271 0.0012960098 819 186
0.19494222 -0.082004368 0.42057398 0.0013717941 800 182
0.19772702 -0.082288362 0.42112601 0.0013482182 773 175
0.20072395 -0.082653709 0.42213106 0.0015041115 683 155
0.20694661 -0.084325835 0.42984012 0.0016936567 592 134
0.20533143 -0.082802676 0.42131653 0.0016317104 617 140
0.20182271 -0.080554895 0.40920103 0.0014237112 707 160
0.2020831 -0.0798418 0.40497136 0.0014309693 742 168
0.20399685 -0.079789713 0.40416983 0.0014433394 731 166
0.20528668 -0.079497039 0.4022252 0.0014560991 686 156
0.20490621 -0.078569643 0.39715171 0.0014243555 698 158
0.20638548 -0.078366466 0.39582235 0.0014708671 675 153
0.20864765 -0.078461625 0.39607984 0.0015971584 586 133
0.21095277 -0.078570955 0.39648899 0.0018016653 544 123
-0.33849177 -0.10876574 0.57068479 0.0071706926 85 19
nan nan nan 0 80 18
-0.40083781 -0.13101447 0.68479019 0.011481973 53 12
nan nan nan 0 50 11
nan nan nan 0 67 15
nan nan nan 0 65 14
nan nan nan 0 64 14
nan nan nan 0 56 12
-0.35551628 -0.12252342 0.6354326 0.01206666 53 12
-0.35785061 -0.12445647 0.64501768 0.01318195 49 11
nan nan nan 0 51 11
nan nan nan 0 51 11
nan nan nan 0 51 11
-0.35329029 -0.12753895 0.66049892 0.0074061169 84 19
-0.34900942 -0.12720181 0.65896595 0.0044856817 142 32
nan nan nan 0 105 23
nan nan nan 0 101 22
nan nan nan 0 118 26
nan nan nan 0 127 28
-0.35417953 -0.13558747 0.70565611 0.0084785605 76 17
nan nan nan 0 97 22
nan nan nan 0 71 16
nan nan nan 0 72 16
-0.33672288 -0.13431652 0.70382822 0.0061541162 102 23
-0.31128338 -0.12548594 0.65889764 0.0046640867 140 31
-0.31099743 -0.12671475 0.66677636 0.014420153 47 10
-0.30957609 -0.12750258 0.67241859 0.015955308 37 8
nan nan nan 0 54 12
nan nan nan 0 69 15
nan nan nan 0 65 14
-0.31466764 -0.13547203 0.72124779 0.010125586 62 14
-0.31021893 -0.13508704 0.72095287 0.0076773637 80 18
nan nan nan 0 149 33
nan nan nan 0 176 40
-0.27728555 -0.12504417 0.67223394 0.004172442 174 39
nan nan nan 0 148 33
-0.27477002 -0.12692182 0.68557227 0.0056580119 121 27
nan nan nan 0 153 34
nan nan nan 0 147 33
nan nan nan 0 116 26
nan nan nan 0 154 35
nan nan nan 0 140 31
nan nan nan 0 130 29
nan nan nan 0 281 63
-0.15752025 -0.080598645 0.44286051 0.0014465899 695 158
-0.1518476 -0.078756429 0.4335514 0.0012268875 906 206
-0.15158369 -0.079707317 0.43958342 0.0012365745 892 203
-0.14934801 -0.079633519 0.43994755 0.0012650901 860 195
-0.1483122 -0.080206513 0.44386396 0.0013937547 773 175
-0.14632647 -0.080274902 0.44496813 0.0013301308 797 181
-0.14410508 -0.080214135 0.44533068 0.0012881786 836 190
-0.14175831 -0.080080733 0.44526297 0.0012332323 894 203
-0.13871258 -0.07954248 0.44291356 0.0012018484 984 224
-0.13623977 -0.079321325 0.44229913 0.0011966688 1011 230
-0.13720201 -0.081124336 0.45295912 0.0012536948 870 198
-0.13741542 -0.082534589 0.46142545 0.0014126112 735 167
-0.13735187 -0.083821103 0.4691948 0.0014190522 709 161
-0.13152298 -0.081573792 0.45715326 0.0012656484 905 206
-0.12907943 -0.081386432 0.45661706 0.0011749003 1006 229
-0.12725323 -0.081588551 0.45824376 0.001158799 988 224
-0.12537789 -0.081765585 0.45970982 0.0011997283 952 216
-0.12365577 -0.082050458 0.46176359 0.0012124806 945 215
-0.1220053 -0.082393833 0.46412912 0.001231936 922 209
-0.12016789 -0.082621098 0.4658232 0.001261928 861 196
-0.1199806 -0.084012188 0.47406694 0.0013517539 811 184
-0.11761034 -0.083898261 0.47380462 0.001316365 793 180
-0.11693185 -0.085009888 0.48044887 0.0014263474 739 168
-0.11499779 -0.085234269 0.48206586 0.001397716 729 165
-0.1130285 -0.085440964 0.4835664 0.0014416977 703 160
-0.11079238 -0.085450225 0.48393288 0.0014203984 707 160
-0.1102404 -0.086785711 0.49179804 0.0015251533 699 159
-0.10760496 -0.086502805 0.4904792 0.0014307927 703 160
-0.10599709 -0.087051585 0.49386096 0.0015112547 681 155
-0.10376373 -0.087099575 0.49438795 0.0014418325 696 158
-0.10272149 -0.08817213 0.50071883 0.0014980494 662 150
-0.10095271 -0.088656224 0.50369757 0.0014894698 659 150
-0.099092714 -0.089081205 0.5063287 0.0014800521 685 155
-0.097027481 -0.089337811 0.50799102 0.0014376984 696 158
-0.095110342 -0.089746907 0.51050878 0.0014200702 709 161
-0.093707465 -0.090674438 0.51596588 0.001502594 670 152
-0.092209965 -0.091556497 0.52115566 0.0015644169 626 142
-0.090982176 -0.092760853 0.52817196 0.0015979107 591 134
-0.089045428 -0.093288876 0.53132904 0.0015925376 594 135
-0.086665407 -0.09336926 0.53192687 0.0015853274 601 136
-0.084389195 -0.093569458 0.53319722 0.0015876533 588 133
-0.082242668 -0.093929783 0.53537112 0.001648039 563 128
-0.079903245 -0.094085313 0.53636897 0.0016469941 562 127
-0.077195659 -0.093803406 0.53486413 0.0017366515 556 126
-0.074598521 -0.093641527 0.53403485 0.0016614267 558 127
-0.07188759 -0.093320854 0.53229165 0.0016473867 564 128
-0.069677435 -0.093650602 0.53425092 0.0018018144 544 123
-0.067389399 -0.093896002 0.53572255 0.0017741278 553 125
-0.06518276 -0.094277807 0.53796631 0.0016525825 554 126
-0.063108675 -0.094889127 0.54151428 0.0016786726 541 123
-0.061994191 -0.097053088 0.55391866 0.0018297628 504 114
-0.060521897 -0.098818757 0.5640465 0.0018930626 481 109
-0.058159228 -0.099223897 0.5664044 0.0017842319 500 113
-0.055128019 -0.098472945 0.56215793 0.0017594702 509 115
-0.052556995 -0.098510459 0.56240803 0.0017409172 514 117
-0.050032806 -0.098644234 0.56320357 0.0017989604 496 112
-0.047838908 -0.099479459 0.5680005 0.0018647066 462 105
-0.045138024 -0.099296093 0.56697834 0.00196279 464 105
-0.04173195 -0.097443573 0.55642176 0.0017885641 493 112
-0.039271474 -0.097701028 0.55791044 0.0018458152 498 113
-0.036943074 -0.098346151 0.56161046 0.0017904504 503 114
-0.034444455 -0.09860117 0.56308061 0.0017909824 493 112
-0.031816803 -0.098498292 0.56250501 0.0017586477 513 116
-0.028835598 -0.097185574 0.55501825 0.0017082038 532 121
-0.026327895 -0.097368509 0.55607128 0.0018307271 525 119
-0.02370479 -0.097118102 0.55464822 0.0017596522 560 127
-0.021099478 -0.096888892 0.55334491 0.0016276477 566 128
-0.018473372 -0.096488059 0.55106032 0.0016042585 581 132
-0.016005209 -0.096915893 0.55350769 0.001738722 561 127
-0.013547843 -0.097583674 0.55732441 0.0017251235 533 121
-0.011012156 -0.097867697 0.55894905 0.001734269 523 119
-0.0084856562 -0.098431684 0.56217194 0.0017601051 503 114
-0.0059174928 -0.09879557 0.56425142 0.0018888665 500 113
-0.003319208 -0.098832741 0.56446451 0.0017733431 501 114
-0.00071772019 -0.098698542 0.56369829 0.0017688556 505 114
0.0018722587 -0.098330818 0.56159812 0.0018419161 506 115
0.0044339155 -0.097765289 0.55836761 0.0018006419 516 117
0.0069552516 -0.097052403 0.55429518 0.0016558572 549 124
0.0094976025 -0.096936904 0.55363411 0.0016987395 566 128
0.012061658 -0.097044952 0.55424905 0.0016840141 564 128
0.014640005 -0.097210117 0.55518979 0.0017644322 535 121
0.017368756 -0.09817633 0.56070465 0.0017898956 488 111
0.020090731 -0.09885899 0.56459922 0.0019574724 462 105
0.022680072 -0.098807305 0.56429869 0.0020383897 457 104
0.025215674 -0.098556213 0.56285834 0.0018758649 459 104
0.027847633 -0.09869346 0.56363446 0.0018562117 462 105
0.03042249 -0.098622181 0.56321824 0.0018717353 462 105
0.032936998 -0.09838184 0.56183487 0.0018755443 481 109
0.035531096 -0.098396927 0.56190836 0.001968266 483 109
0.03787411 -0.097761862 0.558267 0.0017624188 502 114
0.040206447 -0.097181782 0.55493748 0.0017138158 521 118
0.04258037 -0.09676557 0.55254114 0.0016979765 536 122
0.044978958 -0.096449211 0.55071235 0.0016552424 551 125
0.047594797 -0.096607618 0.55159128 0.0016933089 536 122
0.050276019 -0.096875958 0.55309427 0.0017808011 493 112
0.052707955 -0.096661225 0.5518353 0.0018232103 490 111
0.054929323 -0.096097887 0.54858238 0.0017696834 505 114
0.057377532 -0.095963515 0.5477739 0.0018139617 480 109
0.059650637 -0.095559955 0.54542446 0.0018093678 489 111
0.061945092 -0.095221855 0.54344368 0.0017977892 489 111
0.063133739 -0.093276292 0.53228462 0.0018567207 518 117
0.065693334 -0.093426019 0.53307766 0.0018749544 472 107
0.065952942 -0.090412006 0.51581454 0.001745071 522 118
0.066054694 -0.087398991 0.49855518 0.0016421552 569 129
0.066675834 -0.085252777 0.48623809 0.0015351838 629 143
0.068409197 -0.084622137 0.48256052 0.0015569989 656 149
0.07026168 -0.08417394 0.47991708 0.0016234902 631 143
0.072189622 -0.083840773 0.47792271 0.0015822194 602 137
0.07442531 -0.083874188 0.47801021 0.0016979915 569 129
0.076524392 -0.083756156 0.47722617 0.0016987158 568 129
0.078592181 -0.083611451 0.47628137 0.0016373891 577 131
0.080905274 -0.083728477 0.47681838 0.0016983381 576 131
0.083102673 -0.083722755 0.47664621 0.0017142282 583 132
0.085770041 -0.084178574 0.47909042 0.0016270546 566 128
0.088269584 -0.084450871 0.4804779 0.0017456802 570 129
0.090853333 -0.08478839 0.48222369 0.0016552658 566 128
0.093769252 -0.085412286 0.48558417 0.0016305634 587 133
0.098291911 -0.087436266 0.49688566 0.0018062927 541 123
0.10156295 -0.088279754 0.50145817 0.0018216708 499 113
0.10397591 -0.088356331 0.50165784 0.0017430732 522 118
0.10665002 -0.088646635 0.50305521 0.0017053734 545 124
0.10919397 -0.08881864 0.50376451 0.0016457611 552 125
0.11170947 -0.088960767 0.50428736 0.0016641127 551 125
0.11389875 -0.088842615 0.50331807 0.0017526867 562 127
0.11659253 -0.089114822 0.50454241 0.0016837112 543 123
0.11893843 -0.089115627 0.50421137 0.0017567279 564 128
0.121354 -0.08916761 0.50415111 0.001722683 537 122
0.12365229 -0.089133061 0.50358242 0.0017296162 529 120
0.1256043 -0.088854842 0.50161862 0.001651937 565 128
0.12525176 -0.086986311 0.49066642 0.0015232904 630 143
0.1270325 -0.086639814 0.48828945 0.0014179585 707 160
0.12912194 -0.08651235 0.48712829 0.0014667151 732 166
0.13063391 -0.08600907 0.48383266 0.0013625723 776 176
0.13257618 -0.085801452 0.48218206 0.0013582188 774 176
0.13485347 -0.085813954 0.48174682 0.0013941337 741 168
0.1372965 -0.085929789 0.4818677 0.0014004889 717 163
0.13974711 -0.086046524 0.48196843 0.0015966942 624 142
0.14216797 -0.086141527 0.48192152 0.0016175401 573 130
0.1411851 -0.084203541 0.47048891 0.0015326173 625 142
0.14023966 -0.082347415 0.45951599 0.0014188156 724 164
0.14246687 -0.082382381 0.45908415 0.0014527534 729 165
0.14470361 -0.082421735 0.45865098 0.0014765317 713 162
0.14653094 -0.082230166 0.45690832 0.0014830921 687 156
0.14881277 -0.082295492 0.45656821 0.0014323682 697 158
0.15063801 -0.082110114 0.45481199 0.001408514 740 168
0.15193568 -0.081646435 0.45149395 0.0013736797 753 171
0.15259053 -0.080855086 0.44634935 0.0012888029 826 188
0.15507191 -0.081040032 0.44657391 0.0013331128 829 188
0.15806803 -0.081485309 0.44820061 0.0012798141 858 195
0.159504 -0.08112517 0.44537058 0.0013234526 847 192
0.16169526 -0.081153616 0.44465199 0.0013073081 861 196
0.16393369 -0.081204683 0.44403175 0.0012713235 884 201
0.16593938 -0.081140637 0.44275784 0.0012293876 893 203
0.16812991 -0.081167437 0.44195732 0.0012423332 874 198
0.17032796 -0.081197172 0.44115013 0.0012717998 863 196
0.17206307 -0.081008196 0.43913645 0.0012742653 866 197
0.17436713 -0.081088454 0.43856514 0.0012638319 856 194
0.17690064 -0.081272162 0.43853402 0.0012400125 885 201
0.17804779 -0.080822185 0.43507332 0.0012580907 874 198
0.17976163 -0.080637015 0.43303573 0.0012660268 865 196
0.18182006 -0.080608949 0.43183747 0.001260036 865 196
0.18387273 -0.080579005 0.43062666 0.0012817326 842 191
0.18591736 -0.080546252 0.42940274 0.001285405 833 189
0.18825167 -0.080638327 0.42884925 0.0013257754 799 181
0.1907524 -0.080798842 0.42866755 0.0013898226 732 166
0.19021986 -0.079685166 0.42175439 0.0013838983 778 177
0.19200605 -0.079556502 0.42009261 0.0012873912 845 192
0.19215006 -0.078757539 0.41493097 0.0012709299 850 193
0.19374692 -0.078564741 0.41300908 0.001289982 826 188
0.19721507 -0.079126835 0.41509229 0.0013722017 747 170
0.20198224 -0.080192924 0.41984934 0.0014803807 669 152
0.20233929 -0.079504125 0.41546851 0.0015845073 652 148
0.2038724 -0.079286799 0.4136197 0.0014743682 673 153
0.20235337 -0.077898897 0.40574259 0.0014061288 719 163
0.20313646 -0.077416182 0.40266362 0.001373368 749 170
0.20380622 -0.076900311 0.39949137 0.0014072303 720 163
0.20456374 -0.076427348 0.39662322 0.0015164783 691 157
0.20599224 -0.076211847 0.3951723 0.0015289036 689 156
0.20841165 -0.076363586 0.39570537 0.0015556189 615 140
0.21016194 -0.076269582 0.39504561 0.0018057304 530 120
-0.37632218 -0.11773988 0.63405645 0.0061728447 97 22
nan nan nan 0 75 17
-0.40110236 -0.12765138 0.68485373 0.0087558152 79 17
nan nan nan 0 59 13
nan nan nan 0 54 12
-0.37876391 -0.12373456 0.66085202 0.011979423 49 11
-0.38076884 -0.1254974 0.66948175 0.013418168 46 10
nan nan nan 0 70 15
nan nan nan 0 80 18
nan nan nan 0 152 34
nan nan nan 0 149 33
nan nan nan 0 53 12
nan nan nan 0 47 10
nan nan nan 0 44 10
-0.34642729 -0.12293851 0.65419978 0.0053654797 115 26
-0.34481975 -0.12355289 0.65786666 0.0044950582 151 34
nan nan nan 0 121 27
-0.35473979 -0.12961747 0.69140917 0.0056514228 123 28
nan nan nan 0 103 23
nan nan nan 0 68 15
-0.37825933 -0.14243026 0.7628901 0.0067627942 100 22
-0.37669885 -0.14330082 0.76886219 0.0061507812 102 23
nan nan nan 0 113 25
nan nan nan 0 142 32
-0.30991882 -0.12164852 0.65656215 0.0048342412 127 28
-0.30845308 -0.1223712 0.6619091 0.011380736 55 12
-0.30840671 -0.12367874 0.67050123 0.014502891 49 11
nan nan nan 0 109 24
nan nan nan 0 156 35
nan nan nan 0 176 40
nan nan nan 0 71 16
-0.3116551 -0.13214152 0.7250523 0.012203273 54 12
-0.30875462 -0.13242906 0.72841215 0.0076741753 77 17
nan nan nan 0 154 35
nan nan nan 0 157 35
nan nan nan 0 131 29
nan nan nan 0 111 25
-0.25085315 -0.11421338 0.63573945 0.0043444033 156 35
nan nan nan 0 179 40
-0.24949831 -0.11646237 0.65116441 0.0062112454 106 24
nan nan nan 0 200 45
nan nan nan 0 136 30
nan nan nan 0 197 44
-0.15967523 -0.078494743 0.44252968 0.0017638085 518 117
-0.15508728 -0.077265777 0.43643856 0.0013055035 841 191
-0.15203179 -0.076777183 0.43448558 0.0012143998 956 217
-0.14979617 -0.076694846 0.43480018 0.0011648074 973 221
-0.1480712 -0.076875292 0.43657988 0.001249318 884 201
-0.14620632 -0.076987214 0.43794766 0.0012921066 836 190
-0.14411634 -0.076982118 0.43862516 0.0012971909 843 191
-0.14418061 -0.078144461 0.44593918 0.0013136172 823 187
-0.14245152 -0.078354925 0.44780779 0.0012852583 831 189
-0.14028211 -0.078325883 0.44828382 0.0012912416 864 196
-0.13630043 -0.077268586 0.44284126 0.0011512915 995 226
-0.13583574 -0.078203179 0.44878918 0.0011898436 948 215
-0.13403684 -0.078387059 0.45041332 0.0012458882 876 199
-0.13574561 -0.080661125 0.46404123 0.0013549912 760 173
-0.1344777 -0.081211776 0.46775007 0.0014709833 720 163
-0.13002276 -0.079824097 0.46026629 0.00126549 855 194
-0.12746231 -0.079572313 0.45929927 0.0012180317 964 219
-0.12538654 -0.079619624 0.46003553 0.0011657843 975 221
-0.12340569 -0.079729952 0.46111554 0.0011634876 997 226
-0.12190791 -0.080161817 0.46403736 0.0011811077 963 219
-0.12027571 -0.080519326 0.46651253 0.001214775 913 207
-0.11828387 -0.080644816 0.46762612 0.0012373023 888 202
-0.11668386 -0.08104717 0.47032836 0.0012637153 857 195
-0.11513716 -0.081502669 0.47332412 0.0012872606 830 188
-0.11454946 -0.082668006 0.48043096 0.0013359069 781 177
-0.11259066 -0.082870543 0.4819299 0.0013991727 772 175
-0.11041136 -0.082915708 0.48249739 0.0013664808 758 172
-0.10841658 -0.083104178 0.48388281 0.0013886743 733 166
-0.10695479 -0.083717808 0.48773035 0.0014060021 721 164
-0.10507151 -0.08402092 0.48975602 0.0013792804 737 167
-0.10384659 -0.084875509 0.49498445 0.0015382587 687 156
-0.10274466 -0.085871495 0.50102806 0.0014977441 652 148
-0.10119668 -0.086532094 0.50510478 0.0015434759 659 150
-0.099157825 -0.086794272 0.50684434 0.0014350358 694 158
-0.097256504 -0.087192461 0.50936627 0.0014381548 695 158
-0.095156826 -0.087428175 0.5109275 0.0014390481 693 157
-0.093162224 -0.087774888 0.51312631 0.0015158958 670 152
-0.092072599 -0.089014634 0.52053678 0.0015284872 630 143
-0.090198405 -0.089542046 0.52377343 0.0015591403 617 140
-0.087860979 -0.089625992 0.52440602 0.0015610593 636 144
-0.085452802 -0.089640483 0.52462178 0.001585578 624 142
-0.083343513 -0.089978501 0.5267216 0.0016191583 585 133
-0.082087062 -0.091285229 0.53448468 0.0017629808 550 125
-0.079669744 -0.091341995 0.53492165 0.0016675743 551 125
-0.077408761 -0.091587357 0.53645474 0.001705438 535 121
-0.074960008 -0.091619425 0.53673047 0.0017682503 525 119
-0.073172115 -0.092489012 0.54190582 0.0018505888 518 117
-0.070678033 -0.092495926 0.54202002 0.0017890075 511 116
-0.068197608 -0.092521854 0.54223871 0.0017599381 507 115
-0.065758653 -0.092608184 0.54280508 0.0019065931 498 113
-0.063365467 -0.092768319 0.54379821 0.0017994096 523 119
-0.061498463 -0.093743749 0.54956543 0.0018030665 493 112
-0.059438784 -0.094496652 0.55402368 0.0018213221 484 110
-0.058116812 -0.096542642 0.56605947 0.0018234199 484 110
-0.055295318 -0.096172869 0.56392699 0.0018372711 482 109
-0.052172601 -0.0952169 0.55835253 0.0017656727 502 114
-0.049254134 -0.094553858 0.5544914 0.0017285375 527 119
-0.046925794 -0.095013089 0.55720818 0.0019172606 492 112
-0.045274694 -0.096976131 0.56874138 0.0019018538 464 105
-0.042618394 -0.096894994 0.56828344 0.001904126 466 106
-0.039368641 -0.095365666 0.55932903 0.0018105543 490 111
-0.036942933 -0.095758073 0.56164336 0.0017857031 495 112
-0.034533869 -0.096255973 0.56457442 0.0018622043 484 110
-0.031916026 -0.096205674 0.56428832 0.0018149397 486 110
-0.029148396 -0.095654882 0.56106508 0.0018728782 498 113
-0.026507629 -0.095453754 0.55989128 0.0018604016 499 113
-0.023869855 -0.095221177 0.558532 0.0017351551 517 117
-0.021162657 -0.094622009 0.55502123 0.0017063123 525 119
-0.01860136 -0.094600141 0.55489594 0.0016867745 540 122
-0.016055314 -0.094661236 0.55525655 0.0017081327 529 120
-0.013584705 -0.095274553 0.55885583 0.0017649584 517 117
-0.011020508 -0.095364854 0.55938679 0.0018316462 512 116
-0.0084485793 -0.095422953 0.5597285 0.0017543939 515 117
-0.0059068124 -0.096022405 0.56324536 0.0019412331 482 109
-0.0033122289 -0.0960299 0.56328964 0.0018739282 488 111
-0.00071741169 -0.096060246 0.5634678 0.0017728424 497 113
0.0018747241 -0.095869578 0.56234944 0.0018522115 493 112
0.0044520362 -0.095581897 0.56066173 0.0019455182 480 109
0.0070043118 -0.095165297 0.55821747 0.0019119447 496 112
0.0095463656 -0.09487088 0.55648983 0.0017847524 506 115
0.01211719 -0.094926506 0.55681503 0.0017726363 501 114
0.014759454 -0.095424578 0.55973512 0.0018065653 486 110
0.017393181 -0.095727518 0.56151009 0.0018477843 468 106
0.020095102 -0.096278727 0.56474072 0.0019131879 446 101
0.022714492 -0.096353471 0.56517577 0.0019409192 433 98
0.025199533 -0.095901564 0.56252074 0.0019702183 469 106
0.027551644 -0.095075212 0.55766845 0.0018344049 479 109
0.02995337 -0.094546445 0.55456036 0.0017868646 492 112
0.032663241 -0.094996996 0.55719519 0.0017512779 512 116
0.035058498 -0.09453354 0.55446726 0.0017343118 514 117
0.037089288 -0.093217015 0.54673415 0.0017229585 548 124
0.039852537 -0.093791783 0.55009168 0.0016671204 547 124
0.042537443 -0.094124459 0.55202693 0.0017645238 543 123
0.044948768 -0.093848377 0.55038917 0.0016932893 537 122
0.047615521 -0.094106615 0.55188203 0.0017662232 502 114
0.050214954 -0.094212361 0.5524773 0.0018470995 494 112
0.052624606 -0.093969025 0.55102175 0.0018153527 484 110
0.055065557 -0.093801394 0.55000639 0.0018417118 483 109
0.057304461 -0.093319505 0.54714435 0.0018672592 490 111
0.059689008 -0.093105398 0.54584795 0.0017847717 494 112
0.061754391 -0.092430919 0.541848 0.0018739938 487 110
0.063140698 -0.09083198 0.53242445 0.0017639664 506 115
0.065642804 -0.090897784 0.53275418 0.0019845176 475 108
0.066162325 -0.088312529 0.51754159 0.0017618471 504 114
0.066199362 -0.085285686 0.49973884 0.0016351707 573 130
0.066590637 -0.082903519 0.48571149 0.0016026233 627 142
0.068104237 -0.082028218 0.48050833 0.0015774167 644 146
0.070223592 -0.081914708 0.47976148 0.00163477 623 141
0.07216806 -0.081610359 0.47788993 0.0016776057 602 137
0.074080937 -0.081289388 0.4759137 0.0015941522 590 134
0.075959168 -0.080949984 0.47382215 0.0016253622 615 140
0.077823594 -0.08061529 0.47175023 0.0016792149 580 132
0.080043592 -0.080657102 0.47187281 0.001700971 556 126
0.082946591 -0.081366718 0.47589132 0.0016569586 562 127
0.085126586 -0.08134874 0.4756431 0.0016771925 563 128
0.08750499 -0.081516504 0.47646987 0.0016032141 585 133
0.090140671 -0.081909828 0.47860277 0.0016050019 583 132
0.094058953 -0.083421834 0.48725611 0.0016448544 560 127
0.097176604 -0.084169596 0.49142814 0.0016722161 545 124
0.10047694 -0.085037768 0.49628612 0.0017106438 525 119
0.10385681 -0.085932933 0.50128311 0.0018087565 513 116
0.10641871 -0.086126931 0.50217235 0.0016898713 533 121
0.10853375 -0.085958712 0.50093448 0.001710947 538 122
0.11058609 -0.085748926 0.49943972 0.0016526957 559 127
0.11367694 -0.086336501 0.50257134 0.0017177517 558 127
0.1155237 -0.085974567 0.50015807 0.0016431303 566 128
0.11785992 -0.085983977 0.49988875 0.0016361834 568 129
0.1207451 -0.086385772 0.50188088 0.0017215947 520 118
0.12316833 -0.086448088 0.50187975 0.0016998526 541 123
0.12401094 -0.085419372 0.49552929 0.0015663055 602 137
0.12433573 -0.084078066 0.48735639 0.0014726935 667 151
0.12616694 -0.08378531 0.48524874 0.0013857767 732 166
0.12817876 -0.08362069 0.48386461 0.0013709238 738 168
0.13037159 -0.083577819 0.48316473 0.0013933957 731 166
0.13250212 -0.083497144 0.48222503 0.0014084422 714 162
0.13468251 -0.083450072 0.4814575 0.0014432017 690 157
0.13711174 -0.08355619 0.48155028 0.0014459399 682 155
0.13956413 -0.08367274 0.48167804 0.0016486943 620 141
0.14175941 -0.083633922 0.48088643 0.0016103908 578 131
0.13842276 -0.080383822 0.46162879 0.0014934349 693 157
0.13923647 -0.079607114 0.45657972 0.0013790604 778 177
0.14146495 -0.079650588 0.45621547 0.0013434205 767 174
0.14417452 -0.079959594 0.45734406 0.0014175486 717 163
0.1467842 -0.080204882 0.45807809 0.0014734195 667 151
0.14657837 -0.07892698 0.45009559 0.001418717 721 164
0.147477 -0.078271918 0.44565606 0.0013425145 775 176
0.14932719 -0.078133278 0.44413796 0.0013401919 828 188
0.15083894 -0.077823892 0.44162765 0.0012643276 893 203
0.15384707 -0.078284435 0.44345877 0.001225936 903 205
0.1560735 -0.078340106 0.44296521 0.0012544197 905 206
0.15749386 -0.077995114 0.44018328 0.0012079473 923 210
0.15949474 -0.077942923 0.43903261 0.0011960624 938 213
0.163241 -0.078733906 0.44259804 0.0012654101 920 209
0.16489306 -0.078507483 0.44041324 0.0012127422 918 209
0.16747005 -0.078721575 0.44067624 0.0012212353 905 206
0.16932754 -0.078596324 0.43901622 0.0012216441 901 205
0.17121445 -0.078487657 0.43743065 0.0012603984 863 196
0.17328407 -0.078464411 0.4363035 0.0012421971 881 200
0.17453466 -0.078075327 0.43313035 0.0012245623 900 204
0.17659232 -0.07805226 0.43197832 0.0012181916 903 205
0.17865933 -0.07803382 0.43084061 0.0012768258 869 197
0.18141824 -0.078314491 0.43134224 0.0013047486 816 185
0.18364799 -0.078362897 0.43055534 0.0013192567 803 182
0.18487579 -0.077987522 0.42744362 0.001299739 885 201
0.18496393 -0.077145301 0.42179331 0.0012815275 895 203
0.18780547 -0.077457435 0.42247048 0.001377111 774 176
0.1899302 -0.077470317 0.42152542 0.0013730333 751 170
0.19079313 -0.076973841 0.41783521 0.0013021446 812 184
0.19083385 -0.076159954 0.41246459 0.0012411199 902 205
0.19360885 -0.076443017 0.41307336 0.0013554525 829 188
0.19501564 -0.076185584 0.41079971 0.0013641948 790 179
0.19803917 -0.076558538 0.41196865 0.0014582182 739 168
0.20145918 -0.077075474 0.41395429 0.0015653715 658 149
0.20442364 -0.07740932 0.41500556 0.0015429223 624 142
0.20273204 -0.075991146 0.40673685 0.001424351 707 160
0.20304045 -0.075343572 0.40267774 0.0013776085 744 169
0.2040128 -0.074952781 0.40007025 0.0014799885 713 162
0.20444679 -0.074373834 0.39653936 0.0015184621 682 155
0.20555653 -0.074049592 0.3944487 0.0014498679 690 157
0.20723827 -0.073935658 0.39355958 0.0015884486 636 144
0.20997261 -0.074195854 0.39474222 0.0016873963 545 124
-0.38183668 -0.11623684 0.64295077 0.0072856289 86 19
-0.3826668 -0.11748284 0.64860225 0.0069665387 94 21
-0.3854219 -0.11934633 0.65772611 0.0063831182 103 23
-0.37721616 -0.11781868 0.64825749 0.0075941309 88 20
nan nan nan 0 73 16
nan nan nan 0 106 24
nan nan nan 0 90 20
nan nan nan 0 70 15
nan nan nan 0 79 17
nan nan nan 0 185 42
nan nan nan 0 67 15
nan nan nan 0 47 10
nan nan nan 0 39 8
nan nan nan 0 34 7
nan nan nan 0 41 9
-0.3471427 -0.12102394 0.66247255 0.010040553 58 13
-0.3460134 -0.12180967 0.66736126 0.009761408 61 13
-0.35684532 -0.12686332 0.69579816 0.0092107328 66 15
-0.36143228 -0.12977543 0.71267205 0.0078165922 80 18
-0.36236975 -0.13142264 0.72276145 0.0070580328 90 20
-0.37407526 -0.13704842 0.75491679 0.0055055493 123 28
-0.37098268 -0.13731261 0.75770932 0.0050966465 144 32
nan nan nan 0 144 32
nan nan nan 0 158 35
nan nan nan 0 140 31
nan nan nan 0 108 24
nan nan nan 0 180 40
nan nan nan 0 103 23
nan nan nan 0 144 32
nan nan nan 0 106 24
-0.30136061 -0.12291536 0.69216597 0.0075420584 85 19
nan nan nan 0 52 11
nan nan nan 0 86 19
-0.3202199 -0.1352022 0.76698232 0.0055374922 120 27
nan nan nan 0 164 37
-0.23495042 -0.10158245 0.57903564 0.0044064592 144 32
nan nan nan 0 134 30
-0.26703328 -0.11829469 0.67743886 0.0048219408 137 31
nan nan nan 0 155 35
-0.25561023 -0.11609104 0.66778558 0.0056534302 126 28
nan nan nan 0 181 41
nan nan nan 0 299 68
nan nan nan 0 344 78
-0.15799448 -0.075569659 0.43828431 0.0013942213 750 170
-0.15467802 -0.07497941 0.43568939 0.001256629 868 197
-0.15252405 -0.074944295 0.43628758 0.0012830069 842 191
-0.15006879 -0.07475809 0.43597797 0.001292206 826 188
-0.14806172 -0.074793071 0.43693089 0.0013578817 798 181
-0.14609967 -0.074852116 0.43799943 0.0012583946 884 201
-0.14500141 -0.075361796 0.44168445 0.001320255 803 182
-0.14244781 -0.075118959 0.44093591 0.0012623606 854 194
-0.14300263 -0.076532453 0.44989461 0.001337206 786 178
-0.14117071 -0.076692007 0.45146999 0.0013511946 796 181
-0.13897341 -0.076654896 0.45186353 0.0013019292 819 186
-0.13462302 -0.075410567 0.4451063 0.0012096021 965 219
-0.13410273 -0.076306269 0.45095375 0.0012243721 904 205
-0.13317472 -0.076995023 0.45556593 0.0013341841 784 178
-0.1336886 -0.078553505 0.46531612 0.0014075427 715 162
-0.13211563 -0.078917123 0.46797824 0.0013787127 750 170
-0.12789294 -0.077683561 0.46114099 0.0012885582 852 193
-0.12555444 -0.077571779 0.46093273 0.0012726324 899 204
-0.1237454 -0.077788927 0.46265829 0.0012000882 933 212
-0.12243811 -0.078334801 0.46632242 0.0012505458 939 213
-0.12026597 -0.078337088 0.46673331 0.0011831863 970 220
-0.11835458 -0.078512445 0.46815652 0.0012314102 950 216
-0.11648304 -0.078721307 0.46976224 0.001289114 881 200
-0.1146955 -0.07899601 0.47174448 0.0012728757 836 190
-0.11319302 -0.079481594 0.4749712 0.0013039855 821 186
-0.11202618 -0.080226853 0.47973698 0.0013701478 805 183
-0.11041453 -0.080677368 0.4827278 0.0013764236 779 177
-0.10845532 -0.080887325 0.48426497 0.001362133 760 173
-0.10684542 -0.081372172 0.48743427 0.0013708511 752 171
-0.105215 -0.08186204 0.490621 0.0014299286 741 168
-0.10358983 -0.082377709 0.49395037 0.0014085614 730 166
-0.10243171 -0.083296463 0.49968606 0.0014700406 668 152
-0.10136516 -0.084333874 0.50612438 0.0015292206 627 142
-0.099347152 -0.084610045 0.50798392 0.0014583478 675 153
-0.096690506 -0.084342524 0.50656587 0.0014398018 721 164
-0.095037743 -0.084959112 0.51044601 0.0014599793 692 157
-0.09284398 -0.085111186 0.5115245 0.0014981738 679 154
-0.091232814 -0.085819215 0.51593429 0.0014777263 667 151
-0.089618072 -0.086561777 0.52054292 0.0015228732 634 144
-0.087491624 -0.086837403 0.52233458 0.0015091685 644 146
-0.085214525 -0.086974896 0.52328551 0.001501945 647 147
-0.082905822 -0.087087214 0.52407557 0.0015656841 598 136
-0.080878377 -0.087510601 0.52672905 0.0016877761 574 130
-0.079110511 -0.088249795 0.53127575 0.0016435954 559 127
-0.077331133 -0.089022987 0.5360204 0.0017423 542 123
-0.075387515 -0.089651972 0.53988981 0.0017587816 509 115
-0.073245294 -0.09007965 0.54254055 0.0018958009 505 114
-0.070867106 -0.090237118 0.54355705 0.001788304 500 113
-0.068344161 -0.090215065 0.54348546 0.0017464058 522 118
-0.065833673 -0.090208381 0.5435003 0.0018480868 510 116
-0.063206948 -0.090035617 0.54250848 0.001753807 531 120
-0.060799785 -0.09017425 0.54338753 0.0016911362 534 121
-0.058763199 -0.090898007 0.54778785 0.0017469452 520 118
-0.057723686 -0.093298323 0.56228834 0.001918004 488 111
-0.056148697 -0.095018104 0.57268435 0.0019474827 462 105
-0.052954521 -0.094032295 0.56676972 0.0019400858 467 106
-0.049289476 -0.092064708 0.55493307 0.0017648648 505 114
-0.046412025 -0.091433384 0.5511471 0.0018217197 523 119
-0.044333443 -0.092393868 0.55695337 0.001859833 499 113
-0.041883107 -0.092650034 0.55851138 0.0018194764 502 114
-0.03940599 -0.092876606 0.55988878 0.0018415155 475 108
-0.037393309 -0.094306223 0.56851661 0.0018365951 474 107
-0.034964882 -0.094823711 0.57164419 0.0018661426 462 105
-0.032470591 -0.095232353 0.57411385 0.0019592675 456 103
-0.029687162 -0.094790235 0.57145327 0.0020084686 455 103
-0.027044373 -0.094754852 0.57124358 0.0019204769 460 104
-0.024372412 -0.094598606 0.57030427 0.0019489725 454 103
-0.021763667 -0.094679616 0.57079458 0.0018719577 462 105
-0.018925002 -0.093645185 0.56455964 0.0019464344 469 106
-0.016400736 -0.094084725 0.5672102 0.0018399615 480 109
-0.01367812 -0.093337372 0.56270504 0.0018211366 486 110
-0.011059745 -0.093118139 0.56138361 0.0017738385 497 113
-0.00846544 -0.093029596 0.56084985 0.0018028994 501 114
-0.0059164357 -0.093579777 0.56416672 0.001849568 470 107
-0.0033082222 -0.093321815 0.56261152 0.0018976169 483 109
-0.00071647414 -0.09334223 0.56273454 0.0018372262 471 107
0.0018726268 -0.093174517 0.56172347 0.0018157639 480 109
0.0044510704 -0.092978783 0.56054348 0.0018597932 463 105
0.0070107183 -0.092678316 0.55873203 0.0019478264 462 105
0.0095876576 -0.09270642 0.55890143 0.001942986 463 105
0.012205567 -0.093034916 0.56088179 0.00187591 456 103
0.014847508 -0.093399793 0.5630812 0.0019694469 446 101
0.017435683 -0.093368232 0.56289029 0.0020502473 447 101
0.019997152 -0.093220338 0.56199777 0.0019627023 445 101
0.022517977 -0.092938609 0.56029785 0.0018917551 451 102
0.025052819 -0.092766725 0.55925936 0.0018590643 468 106
0.02734983 -0.091828361 0.5535993 0.0018205629 487 110
0.029732564 -0.091313355 0.55049056 0.0018244333 524 119
0.032169271 -0.091032036 0.5487895 0.0017378388 547 124
0.034505025 -0.090526849 0.54573733 0.0016535694 567 129
0.036962319 -0.090387508 0.54488915 0.0016624187 573 130
0.039587077 -0.090649344 0.54645747 0.0017031366 554 126
0.042240337 -0.090941243 0.54820472 0.0016698567 550 125
0.045161668 -0.091744788 0.55303365 0.0017295592 515 117
0.047592126 -0.091518559 0.55165219 0.0017845827 496 112
0.050074745 -0.091410473 0.55097991 0.0018339519 484 110
0.052649852 -0.091473527 0.55133581 0.001966519 469 106
0.055021785 -0.091194019 0.54962331 0.0018561997 488 111
0.05705395 -0.090400763 0.54481065 0.0017445439 511 116
0.059353754 -0.090080582 0.54284501 0.0018827135 503 114
0.061331704 -0.089317568 0.5382064 0.0018825708 486 110
0.06329149 -0.088588469 0.53376776 0.0017878009 490 111
0.065626286 -0.088419184 0.53269702 0.0018974376 458 104
0.066200495 -0.08597561 0.5179202 0.001775892 504 114
0.066314392 -0.083125181 0.50068992 0.001624901 583 132
0.066750109 -0.080856368 0.48696029 0.0015691122 630 143
0.068060808 -0.079760656 0.48029178 0.0015193083 637 145
0.070082024 -0.079540409 0.47888935 0.0015472572 619 140
0.071980961 -0.079199098 0.47675115 0.0015968564 601 136
0.073756322 -0.07874611 0.47393382 0.0016946231 604 137
0.075354539 -0.078135505 0.47016096 0.0015681684 608 138
0.077266544 -0.077875353 0.4684895 0.0016076913 586 133
0.079635508 -0.078077383 0.46958944 0.0016595518 557 126
0.081760891 -0.078036226 0.46921718 0.0016659267 548 124
0.085118741 -0.079143137 0.47573611 0.0016907322 546 124
0.087162785 -0.079003491 0.47474974 0.0016313246 573 130
0.089877717 -0.079463869 0.47735733 0.0016901919 565 128
0.092911795 -0.080177568 0.48147249 0.0017654664 543 123
0.096550442 -0.081367359 0.48843014 0.0016664827 547 124
0.1002081 -0.082518384 0.49513644 0.0017293418 527 119
0.10377065 -0.083541386 0.50105536 0.0018885256 501 114
0.10582087 -0.083328731 0.49954662 0.0017464659 512 116
0.10794336 -0.083180867 0.49841234 0.0016810492 544 123
0.11004999 -0.083027259 0.49722889 0.0016311945 566 128
0.11251762 -0.083146706 0.49766463 0.0016173562 568 129
0.11543053 -0.08358378 0.49998271 0.0016525998 558 127
0.11717033 -0.083170913 0.49719924 0.0016612895 566 128
0.1202188 -0.083684981 0.4999384 0.0017174627 560 127
0.12283477 -0.083884194 0.50077504 0.0017361437 552 125
0.12206323 -0.081805706 0.48800308 0.0015440141 627 142
0.12387925 -0.081505664 0.48583132 0.0014219455 704 160
0.12588079 -0.08133626 0.48442048 0.0013815414 742 168
0.12806399 -0.081288151 0.48371232 0.0014626178 724 164
0.13027819 -0.081261009 0.48310822 0.0014101375 715 162
0.13244204 -0.081203945 0.4823046 0.0014722887 697 158
0.13434172 -0.080989517 0.48054564 0.0014570132 732 166
0.13652413 -0.080949813 0.4798018 0.0014114985 709 161
0.13932705 -0.08127334 0.48118556 0.0016068618 619 140
0.14142248 -0.081180446 0.48007789 0.0016364836 607 138
0.13849464 -0.078252219 0.46219972 0.0015137059 702 159
0.13971166 -0.077720203 0.45847547 0.0013819911 744 169
0.14182357 -0.077694625 0.45771819 0.0013900504 733 166
0.14444038 -0.077942282 0.45854351 0.0015081502 649 147
0.1441838 -0.076654986 0.45032164 0.0014874698 713 162
0.14544304 -0.076199293 0.44697443 0.0013649841 802 182
0.14700355 -0.075912267 0.44459733 0.0013079103 843 191
0.14856368 -0.075633153 0.4422459 0.0012262112 901 205
0.15012236 -0.075361103 0.439915 0.0012704652 908 206
0.15199865 -0.075253785 0.43852332 0.0011938128 933 212
0.15547121 -0.075928949 0.44165936 0.0011630835 982 223
0.15679248 -0.075549461 0.43863168 0.0011571544 980 223
0.15862592 -0.075423531 0.43705592 0.0011753007 959 218
0.16055091 -0.07534384 0.43572521 0.0011952353 972 221
0.16230892 -0.075188853 0.43393707 0.0011986279 978 222
0.16556965 -0.075725079 0.43610972 0.0011693342 993 226
0.16809057 -0.075913742 0.4362489 0.0011857738 959 218
0.16970979 -0.075695544 0.43402883 0.0011950204 935 212
0.17197077 -0.075765431 0.43344241 0.0011911085 940 214
0.17403932 -0.075749867 0.43234843 0.0012160217 909 206
0.17583615 -0.075617835 0.43057591 0.0012119365 920 209
0.17932263 -0.076206975 0.43289039 0.0013386783 833 189
0.18047023 -0.075799994 0.42953417 0.0013125113 810 184
0.18213105 -0.075615473 0.42744008 0.0012370533 894 203
0.18151522 -0.07450074 0.42010337 0.0011901817 960 218
0.18340319 -0.07442721 0.41865638 0.0012423588 952 216
0.18707633 -0.075071678 0.42124704 0.0013276311 847 192
0.19020131 -0.07548441 0.42253509 0.0014246573 746 169
0.19060339 -0.074819274 0.41781098 0.001314617 812 184
0.18961926 -0.073630236 0.41020936 0.0012429279 887 201
0.19153115 -0.073579088 0.40899315 0.0012980311 853 194
0.19471505 -0.074012548 0.41050193 0.0013378868 832 189
0.1963383 -0.073849909 0.4087438 0.0013222893 805 183
0.20016457 -0.074510723 0.41158682 0.0014153682 711 161
0.20337798 -0.074932203 0.4131518 0.0015333405 634 144
0.20191656 -0.073640198 0.40533879 0.0014517007 692 157
0.20304525 -0.073309273 0.40289667 0.0013796261 754 171
0.20381592 -0.07285694 0.39986396 0.0014582573 722 164
0.20406668 -0.072229467 0.39595151 0.0014324408 713 162
0.20547661 -0.072020516 0.39441517 0.0014533816 694 158
0.20717534 -0.071915835 0.39353052 0.0016012901 657 149
0.20934145 -0.07197383 0.39361691 0.0016384687 572 130
-0.3990202 -0.11809413 0.67148954 0.012177169 47 10
-0.3847999 -0.11485658 0.65185809 0.0067912899 87 19
-0.38264653 -0.11519612 0.65265632 0.0057294383 108 24
-0.37885866 -0.11504515 0.65077603 0.0062755193 95 21
nan nan nan 0 77 17
nan nan nan 0 106 24
nan nan nan 0 60 13
nan nan nan 0 51 11
nan nan nan 0 88 20
nan nan nan 0 79 17
nan nan nan 0 65 14
-0.36558604 -0.11929356 0.6706655 0.013563872 42 9
nan nan nan 0 39 8
-0.36496007 -0.12135173 0.68255037 0.019531554 30 6
-0.36565033 -0.12274718 0.69077516 0.024050351 23 5
-0.36057699 -0.12221614 0.68830335 0.028633775 24 5
-0.35005167 -0.11980868 0.67538822 0.025703497 24 5
-0.35528609 -0.1228009 0.69305152 0.024220522 27 6
-0.35499585 -0.1239242 0.70032555 0.022785217 32 7
-0.35579163 -0.12545307 0.71003807 0.015448905 39 8
-0.3495293 -0.12449902 0.70582002 0.011204957 59 13
nan nan nan 0 102 23
-0.33125106 -0.12043954 0.68539619 0.0039686654 173 39
-0.33513707 -0.12313138 0.70217425 0.0039175902 169 38
nan nan nan 0 157 35
nan nan nan 0 132 30
nan nan nan 0 108 24
-0.3168022 -0.12149581 0.69924444 0.0068436367 89 20
nan nan nan 0 116 26
nan nan nan 0 97 22
nan nan nan 0 145 33
nan nan nan 0 125 28
nan nan nan 0 143 32
nan nan nan 0 90 20
nan nan nan 0 121 27
nan nan nan 0 159 36
nan nan nan 0 160 36
-0.2636309 -0.11354381 0.66947156 0.0042023999 156 35
nan nan nan 0 120 27
-0.20816691 -0.091917761 0.54436684 0.0044938093 152 34
nan nan nan 0 184 41
nan nan nan 0 323 73
-0.16172373 -0.074219018 0.44228765 0.0016534359 612 139
-0.15526886 -0.072203316 0.43111464 0.0012181975 909 206
-0.15113419 -0.071226813 0.42608657 0.0011259258 1041 237
-0.14917025 -0.071260639 0.42706639 0.001124843 1030 234
-0.14923309 -0.072277024 0.43392023 0.0012589901 866 197
-0.14802906 -0.072699733 0.43719903 0.0013512939 837 190
