# .PCD v0.7 - Point Cloud Data file format
VERSION 0.7
FIELDS x y z noise intensity gray
SIZE 4 4 4 4 2 1
TYPE F F F F U U
COUNT 1 1 1 1 1 1
WIDTH 881
HEIGHT 1
VIEWPOINT 0 0 0 1 0 0 0
POINTS 881
DATA ascii
-0.14276645 -0.031375814 0.44661885 0.00096537085 1354 255
-0.14192264 -0.031653985 0.45110145 0.0010353787 1277 255
-0.13987923 -0.031668954 0.45181283 0.0010406324 1192 242
-0.14100966 -0.032413967 0.46292612 0.0012018949 1031 209
-0.14282238 -0.033341426 0.4766449 0.0013453648 864 175
-0.1425847 -0.033811975 0.48382661 0.0012912112 833 169
-0.13745236 -0.033118311 0.47432229 0.0011797729 961 195
-0.13407908 -0.032832749 0.47062755 0.0011326483 1044 212
-0.13185877 -0.032824725 0.47088534 0.0011037635 1074 218
-0.13065587 -0.033073988 0.47481489 0.0011536957 998 202
-0.12936735 -0.033309754 0.47853464 0.0012513911 923 187
-0.12706301 -0.033287629 0.47853112 0.0012016783 972 197
-0.12411667 -0.033093546 0.47603366 0.0011522691 1002 203
-0.12137371 -0.032947641 0.47420722 0.0011357382 1025 208
-0.11897307 -0.032891009 0.4736456 0.0011186219 1052 213
-0.116839 -0.032907315 0.47411638 0.0011067709 1065 216
-0.11504321 -0.033021349 0.47597888 0.0011376326 1015 206
-0.11397586 -0.033352997 0.48096442 0.0012089203 922 187
-0.11441656 -0.034147922 0.49262106 0.0013071101 812 164
-0.11345312 -0.03454753 0.4985657 0.0013446431 776 157
-0.1108557 -0.034455828 0.49740639 0.0013550651 813 165
-0.10804202 -0.034291603 0.49518433 0.0012885591 853 173
-0.10490435 -0.034015235 0.49132693 0.0012267312 902 183
-0.10241394 -0.033941168 0.4903771 0.0012077386 937 190
-0.10013134 -0.033934169 0.49038342 0.0012268815 974 197
-0.0980056 -0.033981249 0.49115911 0.0011578769 979 198
-0.095166028 -0.033777189 0.4882932 0.0011566405 1037 210
-0.092890918 -0.033768442 0.48823932 0.0010893397 1090 221
-0.090786681 -0.033822916 0.48908934 0.001127994 1031 209
-0.088867262 -0.03395078 0.49099118 0.0012084871 1008 204
-0.086678796 -0.033979844 0.49145523 0.0011899638 1037 210
-0.084864348 -0.034161024 0.49411091 0.001173856 969 196
-0.082858987 -0.034273233 0.49576101 0.0012018443 936 190
-0.080692381 -0.034323212 0.49650332 0.0011750307 965 196
-0.077941045 -0.034120128 0.4935779 0.0011865696 950 193
-0.076576933 -0.034530371 0.49951807 0.0012102672 912 185
-0.074960463 -0.034848716 0.50412273 0.001265747 854 173
-0.073267065 -0.035150517 0.50848228 0.0013862638 808 164
-0.071071722 -0.035223477 0.5095259 0.0013324975 790 160
-0.069627024 -0.035686165 0.51620227 0.0013638145 754 153
-0.068346843 -0.036268875 0.52460968 0.0014997413 716 145
-0.066827424 -0.036762703 0.5317269 0.0015322628 683 138
-0.064155407 -0.036635924 0.52986395 0.0014313444 703 142
-0.06092849 -0.036169704 0.52308917 0.0013322461 791 160
-0.058175676 -0.035958119 0.51999474 0.0012424696 875 177
-0.055616077 -0.035852905 0.51843685 0.0012979596 916 186
-0.053364255 -0.035945561 0.5197385 0.0012209603 908 184
-0.051117774 -0.036050703 0.52121896 0.0012714512 852 173
-0.04901208 -0.036270387 0.52435422 0.0013120165 802 162
-0.047051225 -0.03662562 0.52944785 0.0013903851 778 158
-0.04468631 -0.036687981 0.53030723 0.0013011298 814 165
-0.041862622 -0.036359109 0.52551174 0.0012757926 844 171
-0.039687298 -0.036587548 0.52877194 0.0012891613 827 168
-0.036864437 -0.036209852 0.52327311 0.0013704608 808 164
-0.034239952 -0.03598775 0.5200246 0.0014119038 761 154
-0.03034538 -0.034296717 0.49555323 0.0012923139 827 168
-0.027809275 -0.033990614 0.49109635 0.0012757649 847 172
-0.025546955 -0.033994541 0.49112079 0.0013477475 829 168
-0.023372103 -0.034126941 0.49300325 0.0013335295 803 163
-0.020935412 -0.033864353 0.48918188 0.001283815 840 170
-0.018535806 -0.033605546 0.4854179 0.001317159 901 183
-0.016259249 -0.033529352 0.48429444 0.0013221645 879 178
-0.014047638 -0.033584137 0.48506546 0.0012790787 865 175
-0.011852041 -0.033705235 0.48679698 0.0013899603 829 168
-0.0096475072 -0.033851609 0.48889619 0.0012553864 872 177
-0.0073442869 -0.033635374 0.48576164 0.0012178622 950 193
-0.0051053208 -0.0336527 0.4860031 0.0012083845 921 187
-0.0028636253 -0.033665095 0.48617652 0.0012046041 927 188
-0.00062085671 -0.033708863 0.48680621 0.0012900959 903 183
0.0016286364 -0.033771094 0.48770562 0.0013517719 816 165
0.0038975063 -0.033929802 0.49000147 0.0012996356 820 166
0.0062087211 -0.03420525 0.49398652 0.001309642 802 162
0.0085431235 -0.034426197 0.49718761 0.0013173271 805 163
0.010957961 -0.034809105 0.50273114 0.0014189564 759 154
0.013568345 -0.03557086 0.51374966 0.0014658034 712 144
0.016316768 -0.036414079 0.52594858 0.0014585289 680 138
0.018872939 -0.036665458 0.52960289 0.0015253271 663 134
0.021307377 -0.036649823 0.52940327 0.0014378196 757 153
0.023822708 -0.036762223 0.53105593 0.0012517496 868 176
0.025970131 -0.036338869 0.52497137 0.0012459732 878 178
0.028463405 -0.036430389 0.52632689 0.0013268584 803 163
0.030853212 -0.036385514 0.52571386 0.0013031792 813 165
0.033061139 -0.036148306 0.52232355 0.0012598481 854 173
0.03571175 -0.036394466 0.52591908 0.0013159066 799 162
0.038269233 -0.036520444 0.52777964 0.0013226424 797 161
0.0409224 -0.036717214 0.53066444 0.0014999805 710 144
0.043392353 -0.03673666 0.5309875 0.0014424893 699 142
0.045747057 -0.036661673 0.52994567 0.0014337132 696 141
0.047653943 -0.036253605 0.5240888 0.0014048954 720 146
0.050001599 -0.036204055 0.52341366 0.0014538063 754 153
0.052068349 -0.035965044 0.51999831 0.0014283006 780 158
0.054224309 -0.035805974 0.51773733 0.0012744237 848 172
0.056558594 -0.035773102 0.51729947 0.0012532462 868 176
0.058757734 -0.03566087 0.5157119 0.0012494734 870 176
0.060721956 -0.03542034 0.5122661 0.0012431445 896 182
0.063279226 -0.035530791 0.5138936 0.0012821694 874 177
0.065704979 -0.035562098 0.51437324 0.001303024 878 178
0.067991391 -0.035518434 0.51376498 0.0012774242 865 175
0.070235945 -0.035456568 0.51288915 0.0013148108 868 176
0.0728743 -0.03559107 0.51484931 0.0013251347 833 169
0.075369805 -0.035649523 0.51570433 0.0012814577 835 169
0.077567227 -0.035567716 0.51452482 0.0012927905 828 168
0.079758927 -0.035488214 0.51337248 0.0013099289 803 163
0.082663 -0.035721134 0.51673305 0.0013199634 801 162
0.084404558 -0.035452712 0.51283425 0.0013406809 839 170
0.086521722 -0.035352383 0.51135939 0.0012677377 857 174
0.088219725 -0.035090651 0.50754207 0.001229175 888 180
0.08962743 -0.034729943 0.50228512 0.0012408681 930 188
0.09189678 -0.034712873 0.50198948 0.0011995663 933 189
0.093258202 -0.034362108 0.49685916 0.0011675294 1000 203
0.095334433 -0.034285218 0.4956795 0.0011500571 1000 203
0.098177038 -0.03448109 0.49843228 0.0011706383 962 195
0.10025039 -0.03440401 0.49722791 0.001164401 972 197
0.10202356 -0.034229666 0.49460676 0.0011578471 981 199
0.10443269 -0.03427165 0.49509928 0.0012488699 932 189
0.10675079 -0.034282599 0.49513033 0.0011791432 960 195
0.10888828 -0.034236304 0.49432111 0.0011894001 941 191
0.11064778 -0.034075506 0.49184528 0.0011659408 961 195
0.11270174 -0.03401003 0.49073157 0.001227979 962 195
0.11487149 -0.033981387 0.49013454 0.001172817 964 195
0.11693554 -0.033923194 0.48909572 0.0012416741 940 190
0.11916791 -0.033915106 0.48876303 0.0011847027 950 193
0.12139828 -0.033906765 0.48840961 0.0012059647 923 187
0.12345527 -0.033851188 0.48735827 0.0012112819 921 187
0.12537248 -0.033759966 0.48577639 0.001248769 938 190
0.12733719 -0.033684526 0.48440379 0.0011621927 982 199
0.12894791 -0.033519682 0.48172793 0.0011241266 1035 210
0.1310759 -0.033492621 0.48101363 0.0011650881 1004 204
0.13295355 -0.033403572 0.47938925 0.0012006692 1005 204
0.13491701 -0.033338662 0.47809136 0.0011540171 992 201
0.13649699 -0.033182636 0.47546709 0.0011630751 983 199
0.138542 -0.03314282 0.47448754 0.0012011186 1008 204
0.13954867 -0.032859761 0.47000638 0.00114024 1064 216
0.14210717 -0.032945216 0.47077477 0.0011743677 970 197
0.14518994 -0.03314776 0.47318757 0.0012194158 903 183
0.14522032 -0.032657798 0.46569389 0.0011007477 1072 217
0.1468582 -0.032538477 0.46346915 0.0010591827 1145 232
0.14841086 -0.032404013 0.4610067 0.0010368753 1184 240
0.14974476 -0.032226328 0.45790818 0.0010465323 1172 238
0.15155469 -0.032154668 0.45629343 0.001087965 1175 238
0.15331438 -0.0320745 0.45453304 0.0010810993 1105 224
0.15530379 -0.032043923 0.4534497 0.0010595694 1146 232
0.15671118 -0.031895723 0.45067713 0.0010039544 1327 255
0.15897739 -0.031923953 0.45037091 0.00099756802 1272 255
0.16006291 -0.031717468 0.44672856 0.0010238299 1291 255
0.16116107 -0.031518839 0.44317693 0.00098899449 1391 255
0.16311207 -0.031489972 0.44198847 0.00093753141 1421 255
0.16517597 -0.031483352 0.4410837 0.00097024051 1429 255
0.16676852 -0.031388186 0.43891168 0.00091216521 1493 255
0.16906939 -0.031427041 0.43858606 0.00092747173 1485 255
0.17158733 -0.031504802 0.43877128 0.00094573619 1448 255
0.17474332 -0.03169642 0.44050568 0.00099415448 1283 255
0.17571196 -0.03149144 0.43670103 0.0010142572 1291 255
0.1767011 -0.031294923 0.43299937 0.00099788152 1271 255
0.17808446 -0.031172 0.43030074 0.00096335408 1355 255
0.17595364 -0.030443883 0.4192518 0.00099368568 1414 255
0.17745152 -0.030353051 0.41698474 0.00090937549 1496 255
0.17933375 -0.03032927 0.41562369 0.00096608308 1445 255
0.1812274 -0.030307928 0.41428125 0.0010334513 1219 247
0.18878843 -0.0312244 0.42571315 0.0013767394 767 155
0.19560674 -0.031999398 0.4351466 0.0016376585 560 113
0.19763014 -0.031981729 0.43376833 0.0019063012 481 97
0.19660589 -0.031476516 0.42579502 0.0021266358 436 88
0.19697197 -0.031202205 0.42097759 0.001742141 507 103
0.19811003 -0.031054638 0.41789535 0.0017417435 520 105
0.20136501 -0.031238528 0.4192889 0.0023237038 364 73
nan nan nan 0 226 45
nan nan nan 0 121 24
nan nan nan 0 50 10
nan nan nan 0 51 10
nan nan nan 0 107 21
nan nan nan 0 194 39
nan nan nan 0 271 55
0.27982306 -0.040093876 0.52892649 0.002738016 294 59
-0.17101835 -0.020250292 0.28574756 0.004846463 126 25
-0.16891465 -0.020171743 0.28429529 0.0042318241 153 31
-0.16754511 -0.020180264 0.28412703 0.0042912615 168 34
-0.16755241 -0.020356214 0.28637177 0.0036383905 209 42
-0.16755234 -0.020534333 0.28870401 0.0038203096 201 40
-0.16829586 -0.02080754 0.29243299 0.0046547526 156 31
-0.17245981 -0.021512264 0.30228862 0.0059416909 127 25
-0.17130813 -0.021560641 0.30298823 0.0044127884 140 28
-0.17102993 -0.021720825 0.30532917 0.0046823868 167 33
-0.17058447 -0.021862498 0.30748177 0.0039563547 164 33
-0.17056312 -0.02206165 0.31051588 0.0052278219 119 24
-0.17191775 -0.022444157 0.31620756 0.0079013035 85 17
-0.17739342 -0.023376927 0.32974145 0.0065107499 89 18
nan nan nan 0 122 24
nan nan nan 0 116 23
nan nan nan 0 118 23
nan nan nan 0 109 22
-0.30482885 -0.042153593 0.59984988 0.0073163263 99 20
nan nan nan 0 96 19
-0.30972031 -0.04369285 0.62459415 0.0091907922 74 15
-0.30572474 -0.043568045 0.62432474 0.0091896299 64 13
-0.31321296 -0.045094021 0.64781183 0.0089017292 68 13
-0.31286559 -0.045511872 0.65549105 0.0082112923 87 17
-0.31157145 -0.045799322 0.66134888 0.0081222802 97 19
nan nan nan 0 112 22
-0.25977364 -0.03900408 0.56619394 0.0038203651 200 40
nan nan nan 0 195 39
nan nan nan 0 104 21
-0.30058283 -0.046631213 0.68223298 0.0070956396 87 17
-0.29543254 -0.046345592 0.67978686 0.0068598855 95 19
-0.29103798 -0.04617339 0.67896235 0.0048915781 129 26
nan nan nan 0 196 39
nan nan nan 0 359 72
nan nan nan 0 389 79
nan nan nan 0 258 52
-0.1722248 -0.028964132 0.43092194 0.0019826097 446 90
-0.16990933 -0.028922027 0.43122113 0.0015474753 616 125
-0.16633166 -0.028661391 0.4282248 0.0011819589 955 194
-0.16431369 -0.028666362 0.42916077 0.0011354856 1035 210
-0.16545397 -0.029229412 0.43843967 0.0010811602 1109 225
-0.16381733 -0.029309997 0.44047099 0.0011090593 1130 229
-0.16128643 -0.029230596 0.44006869 0.0010122592 1283 255
-0.15808253 -0.029025549 0.43773803 0.0009879712 1360 255
-0.15667856 -0.029149927 0.44034424 0.0010157888 1247 253
-0.15492316 -0.029211393 0.44197592 0.0010553899 1199 243
-0.15580079 -0.029777778 0.45123321 0.0011708093 1047 212
-0.15355739 -0.029755073 0.45154771 0.0011405058 1082 219
-0.14894284 -0.029265815 0.44474301 0.0010170897 1263 255
-0.14641619 -0.029178729 0.44401053 0.00094148942 1405 255
-0.14420012 -0.029151917 0.44416633 0.00093613775 1423 255
-0.14297745 -0.029328091 0.44739157 0.00096646993 1363 255
-0.14106108 -0.029365083 0.44847193 0.00098823756 1320 255
-0.1392176 -0.029418603 0.44978109 0.0010229216 1285 255
-0.13767816 -0.029538995 0.45209107 0.0010376024 1197 243
-0.13896418 -0.030278761 0.46386951 0.0011473475 1007 204
-0.14258124 -0.031557851 0.48391587 0.0013427959 817 166
-0.1389911 -0.03125722 0.47972834 0.0013645703 864 175
-0.13448092 -0.030736489 0.47212878 0.0011800179 981 199
-0.1316193 -0.030581521 0.47011667 0.0010880189 1087 220
-0.12961575 -0.030624064 0.47111782 0.0011556693 1084 220
-0.12795474 -0.030750379 0.47338876 0.0012004519 1012 205
-0.12719411 -0.031101272 0.47910154 0.0011944583 942 191
-0.12415486 -0.030897563 0.47625256 0.0011644498 979 198
-0.12162641 -0.030815911 0.4752633 0.0012082884 996 202
-0.11878176 -0.030649655 0.47294876 0.0011126754 1056 214
-0.11656057 -0.030641053 0.47304779 0.0011347714 1029 209
-0.11445431 -0.030662909 0.47360024 0.0011377124 1019 207
-0.11331952 -0.030950956 0.47824967 0.0011743616 963 195
-0.11432397 -0.031846374 0.49227533 0.0012971138 827 168
-0.11337756 -0.032223675 0.49828374 0.0013698179 755 153
-0.1113109 -0.03229161 0.49949557 0.0013544369 763 155
-0.10794628 -0.031977911 0.49478832 0.001313405 837 170
-0.10491668 -0.031752057 0.49142393 0.0012804141 840 170
-0.10254602 -0.03172005 0.49104542 0.0012710582 881 179
-0.10028888 -0.031722501 0.49118766 0.0012596643 894 181
-0.097952582 -0.031699449 0.4909229 0.0012284602 891 181
-0.095764637 -0.031724449 0.491391 0.0012539127 942 191
-0.092972219 -0.031545565 0.48868981 0.0011859796 1017 206
-0.091100626 -0.031677991 0.49080092 0.0012116453 1003 203
-0.0888592 -0.031685285 0.49096385 0.0011351694 1017 206
-0.086774439 -0.031750292 0.49201187 0.0011572932 1010 205
-0.084781595 -0.031853311 0.49364057 0.0012184442 955 194
-0.082667261 -0.031915106 0.49462256 0.0012204275 945 192
-0.08031527 -0.03188606 0.49418893 0.0012159534 981 199
-0.078052558 -0.031891793 0.49428728 0.0011628567 979 198
-0.076051675 -0.032008067 0.49609226 0.0012589091 936 190
-0.074299768 -0.032239575 0.4996773 0.0012720029 911 185
-0.072238721 -0.032347471 0.50134063 0.0012551632 869 176
-0.070377186 -0.032554775 0.50453943 0.0013286256 836 169
-0.06847965 -0.032759015 0.5076859 0.0012855206 833 169
-0.067465194 -0.033415101 0.51782995 0.0014632628 754 153
-0.065199159 -0.033476658 0.51875633 0.0014694794 744 151
-0.064144023 -0.0341883 0.52975225 0.0014229772 711 144
-0.061675493 -0.034173112 0.52948236 0.0014492071 695 141
-0.058878351 -0.033967108 0.52625346 0.0013882341 750 152
-0.055643022 -0.033479743 0.51866412 0.0013138662 837 170
-0.053137522 -0.033407465 0.51750427 0.0012374767 882 179
-0.050635938 -0.033330973 0.51627809 0.001312715 870 176
-0.048251767 -0.03332803 0.51619035 0.0012509861 867 176
-0.045873739 -0.033329252 0.51616663 0.001259121 853 173
-0.044037979 -0.033746134 0.52257949 0.0012647775 850 172
-0.041620143 -0.033739433 0.52243257 0.0012411866 885 179
-0.039309189 -0.03382387 0.52369726 0.0012444952 882 179
-0.036621287 -0.033573773 0.5197835 0.0012845236 838 170
-0.033699591 -0.033059288 0.51177865 0.0013545296 802 162
-0.030185245 -0.031842124 0.4928993 0.0013239064 854 173
-0.027697053 -0.03159732 0.48907492 0.0012275684 897 182
-0.025389455 -0.031533398 0.4880524 0.0013485119 874 177
-0.023094192 -0.031473842 0.48709959 0.0012927996 828 168
-0.020804569 -0.031409964 0.48608229 0.0012552692 857 174
-0.018367074 -0.031080414 0.48095638 0.0012784601 929 188
-0.01614742 -0.031079577 0.48092005 0.0012458742 911 185
-0.014057144 -0.031367168 0.48534933 0.001264489 853 173
-0.011853565 -0.031463031 0.48681441 0.0012978935 818 166
-0.0095846374 -0.03138971 0.4856649 0.0012681145 882 179
-0.007302755 -0.031216253 0.48296919 0.001185101 959 194
-0.0050929412 -0.031333793 0.48477876 0.0012004202 934 189
-0.0028564322 -0.031342588 0.48490918 0.0012310385 935 189
-0.00061947416 -0.03139231 0.48567596 0.0013217531 872 177
0.0016295231 -0.031537615 0.4879247 0.0013056631 814 165
0.0039084917 -0.031757846 0.49133593 0.0013306227 791 160
0.0062271599 -0.032020494 0.49540672 0.0014441306 771 156
0.0085527319 -0.032168042 0.49770007 0.001344445 769 156
0.010948838 -0.032462239 0.50226575 0.0014539585 758 154
0.013493059 -0.03301606 0.51085198 0.0014910335 729 148
0.016325107 -0.03400467 0.52616954 0.0014589989 680 138
0.01880537 -0.034099411 0.52765954 0.0015053255 692 140
0.02115069 -0.033955783 0.52546394 0.0013000618 812 164
0.023570511 -0.033949006 0.52538848 0.0012547706 870 176
0.02594381 -0.03388273 0.52439499 0.0012422419 876 177
0.028344462 -0.033860438 0.52408427 0.0012789224 831 168
0.030610118 -0.03369306 0.52152997 0.0012683674 851 172
0.033052605 -0.033730529 0.52214807 0.0012838556 831 168
0.035464808 -0.033734109 0.5222432 0.0013148407 798 162
0.038097724 -0.033933822 0.52537644 0.0014070959 766 155
0.040937908 -0.034283224 0.53082877 0.0014251234 735 149
0.043398041 -0.03429288 0.53102189 0.0014266102 704 143
0.04568221 -0.03416989 0.52916127 0.0014817076 701 142
0.047884103 -0.034000952 0.52658862 0.0014666438 708 143
0.050003376 -0.033792473 0.52340293 0.0014199994 716 145
0.052405663 -0.033785656 0.52333975 0.0014097877 722 146
0.054572873 -0.033634551 0.52104032 0.0013601019 761 154
0.056909431 -0.033596154 0.52048516 0.0013909682 760 154
0.059270822 -0.033574942 0.52019429 0.0013685436 748 151
0.061800163 -0.033646815 0.52134341 0.0013913962 766 155
0.064053446 -0.033568628 0.52016473 0.0014293208 766 155
0.065829508 -0.033255007 0.51533431 0.0013571923 812 164
0.068508491 -0.033403475 0.5176608 0.0012979124 809 164
0.07056313 -0.033247773 0.51526952 0.0013144114 801 162
0.072999172 -0.033276062 0.5157252 0.0013033361 812 164
0.075280778 -0.033234395 0.51509148 0.0012889861 819 166
0.077497065 -0.03316731 0.51405835 0.0013200481 819 166
0.079564698 -0.033042487 0.51212418 0.0012551635 858 174
0.081532374 -0.032884523 0.5096699 0.0012776125 913 185
0.08320374 -0.032619238 0.5055455 0.0011929041 937 190
0.085364692 -0.032555114 0.50453126 0.0012403389 933 189
0.086923853 -0.032270975 0.50009966 0.0012139224 961 195
0.088987604 -0.032184001 0.49871537 0.0011494074 1001 203
0.091043651 -0.032098692 0.4973481 0.0012129386 997 202
0.093114227 -0.032022569 0.49611387 0.001210965 1004 204
0.095365651 -0.032010794 0.49586675 0.0011654675 999 202
0.097617835 -0.031999823 0.49562126 0.0012130054 985 200
0.099772565 -0.031958137 0.49488917 0.001254037 957 194
0.10181118 -0.031881958 0.49361143 0.0011676722 972 197
0.10427813 -0.031940307 0.49440417 0.0012059661 954 193
0.10654474 -0.031936109 0.49421561 0.0011942128 955 194
0.10849448 -0.031839095 0.49257761 0.0011613814 975 198
0.11045768 -0.031749938 0.49104765 0.0011678655 971 197
0.11261287 -0.03171844 0.49039558 0.0011796237 962 195
0.11470339 -0.031670321 0.48947161 0.0011821693 949 192
0.11676457 -0.031616129 0.48843828 0.0012428992 939 190
0.11909146 -0.031634565 0.48851079 0.0012697388 910 184
0.12142899 -0.031655088 0.48859802 0.0012229384 899 182
0.12341161 -0.031584039 0.48725435 0.001236437 941 191
0.12462956 -0.031323351 0.48296928 0.0011872875 982 199
0.1267373 -0.031291548 0.4821969 0.0011981996 999 202
0.12895121 -0.031286597 0.48181906 0.0011461787 1004 204
0.13075048 -0.031182934 0.47990179 0.0011682054 1026 208
0.13266477 -0.031109706 0.47843385 0.0011129675 1052 213
0.13474463 -0.031077087 0.47757015 0.0011396363 1012 205
0.13564475 -0.030777842 0.47259098 0.0011565695 1056 214
0.13752921 -0.030707911 0.47111493 0.0011885973 1059 215
0.13929456 -0.030614011 0.46925014 0.0011007102 1077 218
0.14149013 -0.030616101 0.46883416 0.0011954259 986 200
0.1445365 -0.030799419 0.47116601 0.0013016129 895 181
0.14509663 -0.030455396 0.46540809 0.0011368319 1058 214
0.14697768 -0.030394688 0.46396071 0.0010592969 1138 231
0.14711657 -0.029980721 0.45710319 0.0010472676 1254 254
0.14926581 -0.029982436 0.45656437 0.0010412567 1175 238
0.1508785 -0.029877855 0.45438173 0.0010260225 1214 246
0.1531007 -0.029895203 0.45402777 0.0010681164 1137 231
0.15451169 -0.029755853 0.45126852 0.0010964778 1183 240
0.15646529 -0.029723359 0.45010504 0.00102132 1270 255
0.15843794 -0.029695304 0.44898149 0.0010318805 1250 253
0.16066679 -0.029715376 0.44855666 0.0010047052 1255 255
0.16146149 -0.029473137 0.44414833 0.00099426066 1364 255
0.16337174 -0.029438147 0.44284081 0.00098709913 1397 255
0.16537651 -0.029420856 0.44177136 0.0009399121 1402 255
0.16690293 -0.029319962 0.43942046 0.00093905121 1466 255
0.16889614 -0.029302564 0.43829495 0.00095177192 1455 255
0.17142394 -0.0293772 0.43851522 0.00097219826 1357 255
0.17446789 -0.029537415 0.43997711 0.0010279908 1212 246
0.1757981 -0.029407136 0.43708298 0.001012782 1266 255
0.17634106 -0.029149789 0.43228599 0.0010090894 1258 255
0.17555387 -0.028681142 0.4243544 0.00097053935 1413 255
0.17563003 -0.028362719 0.41864899 0.00090675434 1504 255
0.17751895 -0.028340967 0.41731289 0.00092355371 1462 255
0.17951398 -0.028336458 0.41621205 0.0011150511 1140 231
0.18620889 -0.029065659 0.42584443 0.0015027219 718 145
0.1927395 -0.029753419 0.43480247 0.0018772649 526 106
0.19430269 -0.02966772 0.43242422 0.0016091282 575 116
0.19646302 -0.029674061 0.431384 0.0019459582 483 98
0.19598474 -0.029285977 0.42462268 0.0018468497 468 95
0.19633371 -0.029028399 0.41978204 0.0016931584 527 107
0.19919474 -0.029143739 0.42034894 0.0022195799 413 83
nan nan nan 0 164 33
nan nan nan 0 68 13
nan nan nan 0 48 9
0.24944608 -0.035032023 0.50025743 0.0094413692 78 15
0.25137317 -0.034952167 0.49797693 0.0048593595 149 30
0.25320354 -0.03486057 0.49559712 0.0029249142 250 50
nan nan nan 0 310 62
nan nan nan 0 268 54
0.328192 -0.043890435 0.62049097 0.0040880647 178 36
-0.18159981 -0.01996786 0.30338287 0.0070542651 76 15
-0.17081313 -0.018941956 0.28745398 0.0061954828 117 23
-0.16927248 -0.018932546 0.28702626 0.004354496 146 29
-0.16825448 -0.01898193 0.2875483 0.0035851002 188 38
-0.16645233 -0.018942948 0.28679237 0.0032701096 211 42
-0.16590625 -0.01904748 0.28827181 0.0030652971 224 45
-0.16853112 -0.019521169 0.29540116 0.0035091939 192 39
-0.16877227 -0.019724786 0.29851013 0.00451324 136 27
-0.17076463 -0.020138616 0.30487138 0.0059819915 125 25
-0.17002155 -0.020234467 0.30649179 0.004297656 180 36
-0.16951863 -0.020360943 0.3086482 0.0040806895 182 36
-0.16964358 -0.020565888 0.31206784 0.0043215114 145 29
-0.17147364 -0.020983346 0.3187907 0.0068905097 94 19
-0.17438611 -0.02154245 0.32775176 0.0063669602 99 20
nan nan nan 0 134 27
nan nan nan 0 131 26
nan nan nan 0 109 22
nan nan nan 0 106 21
nan nan nan 0 117 23
nan nan nan 0 87 17
-0.3094683 -0.040952571 0.63218462 0.009812505 68 13
-0.30817658 -0.041200873 0.63762003 0.011079893 65 13
-0.30907726 -0.041750483 0.64778924 0.0096205892 64 13
-0.30446181 -0.041558683 0.64649779 0.0071773389 84 17
-0.30040425 -0.041439768 0.64634615 0.0068051708 100 20
-0.2721318 -0.037942134 0.59335583 0.0058385846 121 24
-0.26552591 -0.037422299 0.58676887 0.0040647667 163 33
nan nan nan 0 231 46
nan nan nan 0 129 26
-0.29400805 -0.042828888 0.67676806 0.0077649108 90 18
-0.28889489 -0.042560771 0.67421883 0.0072904718 85 17
-0.28280073 -0.042140335 0.66919976 0.0062425663 106 21
-0.27353546 -0.041232143 0.65635043 0.0041295672 163 33
nan nan nan 0 257 52
nan nan nan 0 412 83
nan nan nan 0 328 66
nan nan nan 0 313 63
-0.17023629 -0.02723968 0.43842605 0.0016914357 540 109
-0.16796947 -0.027211765 0.43885463 0.0015025004 712 144
-0.16539688 -0.027132992 0.43843034 0.0012345932 903 183
-0.16357771 -0.027177379 0.43996561 0.0010770166 1119 227
-0.15975659 -0.026885998 0.43602866 0.00095479493 1375 255
-0.15706369 -0.026779342 0.43504703 0.00096423103 1363 255
-0.15400207 -0.026606148 0.43294796 0.00098767516 1382 255
-0.15291834 -0.026774598 0.43637973 0.00098880962 1296 255
-0.15278789 -0.027116843 0.44262856 0.0010294329 1208 245
-0.15360278 -0.027638651 0.45180124 0.0011023224 1087 220
-0.14910944 -0.027206561 0.44535506 0.0010334072 1213 246
-0.14713256 -0.027227866 0.44629416 0.0010466666 1191 241
-0.14538999 -0.02729377 0.44793925 0.0010391432 1196 243
-0.14341609 -0.027317541 0.44886854 0.0010366903 1258 255
-0.14102161 -0.027260713 0.44844714 0.00098539598 1291 255
-0.13885641 -0.027247166 0.44871131 0.00097004184 1338 255
-0.13736548 -0.027367536 0.45115823 0.001011367 1237 251
-0.1353443 -0.027384371 0.45187685 0.0010747238 1206 245
-0.13706557 -0.028170913 0.46528551 0.0012017577 979 198
-0.13869408 -0.028963348 0.47879168 0.0012819882 868 176
-0.13465062 -0.028577844 0.4728083 0.0011938747 934 189
-0.13141097 -0.028352972 0.46945202 0.0011166087 1047 212
-0.12889226 -0.028278697 0.46856409 0.0010694076 1128 229
-0.12760229 -0.028476076 0.47215787 0.0011155292 1048 212
-0.12601742 -0.028613387 0.47473916 0.0011643774 984 199
-0.12414994 -0.028690269 0.47630045 0.0011969135 958 194
-0.12166312 -0.028624214 0.47546983 0.0011493805 998 202
-0.11833096 -0.028353179 0.4712131 0.0010880732 1093 222
-0.11615214 -0.028353503 0.47144628 0.0011104443 1063 215
-0.11392613 -0.028342104 0.47146747 0.0011028659 1070 217
-0.11211509 -0.028435502 0.47321627 0.00115153 1032 209
-0.11123767 -0.028774122 0.47903299 0.0012554422 899 182
-0.11245699 -0.029679863 0.49428335 0.0013933385 784 159
-0.11134865 -0.02999608 0.49970758 0.0013563001 764 155
-0.10739505 -0.029542977 0.49230042 0.001372691 821 166
-0.10501933 -0.029513728 0.49194038 0.0013512934 857 174
-0.10243827 -0.029424209 0.49056196 0.0012509429 910 184
-0.10008633 -0.029397937 0.49022508 0.0012081937 920 186
-0.097979739 -0.029444188 0.49108562 0.0012140333 912 185
-0.095778391 -0.029463477 0.49148521 0.0012790503 881 179
-0.093638368 -0.029503021 0.49221206 0.0012424702 898 182
-0.091183685 -0.029442923 0.49126625 0.0012421162 938 190
-0.08902549 -0.029477943 0.49189776 0.0011822591 972 197
-0.086821251 -0.029499145 0.49228969 0.001144957 1001 203
-0.084710598 -0.029554134 0.49323687 0.0011654763 977 198
-0.082571916 -0.02960211 0.49405912 0.0011884407 940 190
-0.080341421 -0.029618956 0.49435431 0.0011727943 963 195
-0.078124031 -0.029641759 0.4947418 0.0011797037 958 194
-0.075919017 -0.029670766 0.49522635 0.001182246 940 190
-0.073891521 -0.029773101 0.49692881 0.0011863663 951 193
-0.071874082 -0.02988616 0.49880457 0.0011934959 939 190
-0.069657817 -0.029921278 0.49937439 0.0012672031 941 191
-0.067590572 -0.030025 0.50108451 0.0012404888 890 180
-0.066357359 -0.030519651 0.50931418 0.0012868283 833 169
-0.064387985 -0.030699581 0.51228732 0.0013608128 807 163
-0.062672846 -0.031019026 0.5175848 0.0013004785 820 166
-0.060471546 -0.031113619 0.51912707 0.0013554528 793 161
-0.059289377 -0.031761959 0.52990526 0.0014073754 728 147
-0.05577093 -0.031160669 0.51983291 0.0013356394 785 159
-0.053246122 -0.031085486 0.51853651 0.0012828209 839 170
-0.050879065 -0.031099666 0.51872969 0.0013096125 854 173
-0.048313599 -0.030987985 0.51682293 0.0012530573 866 175
-0.0458869 -0.030958341 0.51628411 0.0012800671 898 182
-0.043531701 -0.030976323 0.51653957 0.0012226807 907 184
-0.041200038 -0.031014107 0.51712543 0.0012742757 918 186
-0.038829084 -0.031025141 0.51726574 0.001190411 943 191
-0.036466904 -0.031045087 0.51755559 0.0013412321 851 172
-0.033193037 -0.030237326 0.50404894 0.0013354236 797 161
-0.030149298 -0.029533306 0.49227509 0.0012546987 876 177
-0.027620889 -0.029260511 0.48769203 0.0012162586 913 185
-0.025339155 -0.02922382 0.48704648 0.0012173074 911 185
-0.023023481 -0.029137041 0.48556837 0.0012403661 919 186
-0.020571703 -0.028840739 0.48060131 0.0012336964 901 183
-0.018332556 -0.028806956 0.48001173 0.0012175468 905 183
-0.016145319 -0.028856667 0.48081601 0.0013224412 876 177
-0.013996817 -0.029002475 0.48322403 0.0012467881 879 178
-0.011829835 -0.029158 0.48579678 0.001290319 831 168
-0.0095606549 -0.029075472 0.48440629 0.0012852744 911 185
-0.0072758882 -0.028880689 0.48114893 0.0011632787 991 201
-0.0050564562 -0.028888036 0.48126227 0.0011606766 987 200
-0.0028354777 -0.028891142 0.48130819 0.0011679063 974 197
-0.00060990814 -0.028700668 0.47813246 0.0011710053 975 198
0.0016176705 -0.029072737 0.48433164 0.001277282 883 179
0.0038635342 -0.029151047 0.48564023 0.0012775927 845 171
0.0062131407 -0.02966721 0.49424672 0.0013612693 787 159
0.0086411312 -0.030179905 0.50279903 0.0013992608 732 148
0.011135379 -0.030657938 0.51077759 0.0014682282 707 143
0.013723489 -0.031182207 0.51953024 0.0014591013 685 139
0.01624809 -0.031427689 0.52364171 0.0014304785 695 141
0.018663455 -0.031425666 0.52363259 0.0013850791 734 149
0.021093506 -0.031446006 0.52399898 0.0012521624 866 175
0.0234794 -0.031403102 0.52331436 0.0012095243 919 186
0.025909523 -0.031421836 0.52365947 0.0012344655 915 185
0.028042715 -0.031107988 0.51846403 0.0012293661 894 181
0.030412333 -0.031085134 0.51812035 0.0012568476 863 175
0.032793187 -0.031076252 0.51801133 0.0012756045 844 171
0.03513239 -0.031031786 0.51731074 0.0013667656 835 169
0.037618823 -0.031114757 0.51873606 0.0013112533 804 163
0.040166713 -0.031235594 0.52079409 0.0013254378 791 160
0.042858224 -0.031448182 0.52438313 0.0013809067 744 151
0.045461938 -0.03157708 0.52657765 0.0014370513 698 141
0.047791675 -0.031512249 0.52554178 0.0015048725 704 143
0.049924385 -0.031330038 0.52254772 0.0013554746 766 155
0.052214351 -0.031258743 0.52140272 0.0013139395 803 163
0.054443456 -0.031158891 0.51978004 0.0013347648 782 158
0.056808025 -0.031141721 0.51953518 0.0013462811 765 155
0.059404489 -0.031247918 0.52134675 0.0013845285 741 150
0.061791796 -0.031240113 0.52125418 0.0013827025 736 149
0.064278461 -0.031281248 0.52197564 0.00139011 731 148
0.066628091 -0.03125513 0.52157176 0.0014341814 733 148
0.069002762 -0.031242171 0.5213837 0.0014586831 724 147
0.071102254 -0.031109683 0.51919693 0.0014017411 720 146
0.073039874 -0.0309173 0.51600575 0.0014074662 743 150
0.075208701 -0.030831825 0.51459372 0.001422308 776 157
0.077358939 -0.030744189 0.51314008 0.0013802941 807 163
0.079039186 -0.03048051 0.50874215 0.001296754 887 180
0.080943063 -0.030315766 0.50598919 0.0011942895 939 190
0.083123222 -0.030260831 0.50506204 0.0012784888 929 188
0.084829703 -0.030041136 0.5013777 0.0011648686 991 201
0.086497895 -0.029819895 0.49765998 0.0011592472 1039 211
0.088812992 -0.029827336 0.49775049 0.0011313311 1021 207
0.09102568 -0.029800877 0.49726641 0.0011800389 997 202
0.093174793 -0.029755419 0.49645588 0.0011823279 973 197
0.095365047 -0.029724956 0.4958857 0.001163993 988 200
0.097705252 -0.029741567 0.49609032 0.0011678714 987 200
0.099922463 -0.029720832 0.49566075 0.0011837101 953 193
0.10186109 -0.029620018 0.4938843 0.0011770721 953 193
0.10400791 -0.02958283 0.493157 0.0011704556 967 196
0.10609775 -0.029531376 0.49217927 0.0011966467 964 195
0.10802545 -0.029437888 0.49048811 0.0011753333 1015 206
0.11024722 -0.029426735 0.49015525 0.0011620895 987 200
0.11247233 -0.0294169 0.48982987 0.0011862193 948 192
0.11453308 -0.029365316 0.48879439 0.0011938802 932 189
0.11659747 -0.029316641 0.48779199 0.0011715144 969 196
0.11855993 -0.029244669 0.48638639 0.001231628 970 197
0.119792 -0.028998567 0.48207 0.0011565959 989 200
0.12221863 -0.029045349 0.48260638 0.0011348807 1012 205
0.1243064 -0.029011367 0.48178247 0.0011247988 1041 211
0.12645976 -0.028993621 0.48120987 0.0011843203 1029 209
0.12858163 -0.028969392 0.48051047 0.0011746552 1027 208
0.12925321 -0.028624807 0.47448114 0.0011135299 1057 214
0.13140821 -0.028614774 0.47398064 0.0011623112 1057 214
0.13288787 -0.028460443 0.47107065 0.0010821228 1115 226
0.13450405 -0.028339876 0.46870133 0.001073606 1113 226
0.13702475 -0.028410695 0.4694753 0.0010847067 1104 224
0.13906521 -0.028381284 0.46856937 0.0010785841 1111 225
0.14173599 -0.028479436 0.46974462 0.0011939015 1035 210
0.14433368 -0.02856013 0.4706046 0.0012734873 908 184
0.14479645 -0.028222295 0.46454743 0.0011291351 1052 213
0.14566107 -0.027971605 0.45990953 0.0010498993 1174 238
0.14705609 -0.027828576 0.45702323 0.0010252482 1203 244
0.14927821 -0.02784393 0.456714 0.0010733522 1213 246
0.15112291 -0.027789442 0.45523289 0.001035866 1207 245
0.15299465 -0.027741378 0.45383173 0.0010897295 1161 235
0.15450434 -0.027629895 0.45136866 0.001052419 1157 235
0.15633254 -0.027577616 0.44984823 0.0010143283 1291 255
0.15839574 -0.02756764 0.44899046 0.00098555209 1302 255
0.16031431 -0.027533092 0.44770452 0.00099943939 1261 255
0.16210507 -0.027477771 0.4460538 0.00099305692 1284 255
0.16358933 -0.027372595 0.44356856 0.00097557117 1325 255
0.16551429 -0.027342895 0.44228068 0.00097862084 1316 255
0.16798368 -0.027402746 0.44241059 0.0010166914 1285 255
0.16902506 -0.027231058 0.43877646 0.0010048611 1329 255
0.17280909 -0.027500024 0.44221008 0.0010188859 1237 251
0.17398171 -0.027351936 0.43890449 0.0010148278 1237 251
0.17450176 -0.027106026 0.43401456 0.00098999997 1301 255
0.17555416 -0.026947634 0.43051308 0.00099530036 1304 255
0.17424706 -0.026434977 0.42135075 0.00095446187 1406 255
0.17559008 -0.026331561 0.4187102 0.00094122114 1482 255
0.17789899 -0.026373692 0.41836432 0.0010560488 1152 234
0.18606427 -0.027273307 0.43156368 0.0015249371 690 140
0.18809552 -0.027263759 0.43032405 0.0016975068 544 110
0.19244777 -0.027587131 0.43431154 0.0019703365 429 87
0.19328871 -0.027405601 0.43033314 0.0017570354 520 105
0.19460997 -0.027295357 0.42747891 0.001887457 449 91
0.19479345 -0.027029581 0.42220205 0.0016938855 535 108
0.19630007 -0.026951086 0.41986749 0.0017457686 511 103
0.20259181 -0.027524332 0.42767486 0.0024639764 315 64
0.25031769 -0.033656817 0.52160698 0.0074740904 82 16
0.25546354 -0.033997219 0.52554125 0.0093945023 65 13
0.24168891 -0.031838283 0.49094552 0.0055038501 112 22
0.24225555 -0.031592917 0.48599178 0.0034049533 216 43
0.25142047 -0.032462608 0.49822024 0.0025411649 295 59
nan nan nan 0 308 62
nan nan nan 0 219 44
nan nan nan 0 161 32
0.33725598 -0.041882157 0.6377607 0.0048489482 157 31
-0.19089188 -0.019375622 0.31886333 0.0082785962 85 17
-0.18528792 -0.018967183 0.31177709 0.0086559206 71 14
-0.17166382 -0.017723665 0.29105356 0.0058894739 105 21
-0.16924916 -0.017625947 0.28922713 0.0054326388 138 28
-0.16690455 -0.017533878 0.28755724 0.0035756594 187 37
-0.16552928 -0.017542915 0.2876094 0.0031458314 220 44
-0.16650914 -0.017803932 0.29185671 0.0031016273 231 46
-0.16691718 -0.018007949 0.29523632 0.0031589798 224 45
-0.16694447 -0.01817422 0.29806638 0.0039012916 165 33
-0.16867651 -0.018530816 0.30409089 0.0050561526 132 26
-0.17000854 -0.018849649 0.30957261 0.0037851778 173 35
-0.16857828 -0.018865304 0.31014881 0.0036081623 202 41
-0.16763479 -0.018936235 0.31170279 0.0036139202 185 37
-0.1693965 -0.019317005 0.31843215 0.0059573357 116 23
-0.17092669 -0.019678421 0.32492363 0.0063429577 109 22
-0.16946943 -0.019699564 0.32586634 0.0044976315 142 28
nan nan nan 0 146 29
nan nan nan 0 105 21
nan nan nan 0 100 20
nan nan nan 0 97 19
-0.30698663 -0.03750046 0.62731373 0.0092773968 80 16
-0.30816641 -0.038031567 0.63780826 0.0086621791 71 14
-0.30342698 -0.037835609 0.63616139 0.009642018 68 13
-0.2975412 -0.037491098 0.63202024 0.011279 65 13
nan nan nan 0 73 14
-0.27550229 -0.035458453 0.60091728 0.0060057482 105 21
-0.27088055 -0.035241432 0.5988149 0.006061486 112 22
nan nan nan 0 123 24
nan nan nan 0 220 44
-0.25164202 -0.033838637 0.57945216 0.0038353766 179 36
-0.28545493 -0.038820338 0.66642487 0.0076790215 103 20
-0.28201857 -0.038792454 0.6675809 0.0069353259 91 18
-0.27500603 -0.038266309 0.66010565 0.0061009275 100 20
-0.27096048 -0.038145516 0.65955973 0.0053903591 125 25
nan nan nan 0 189 38
nan nan nan 0 315 64
nan nan nan 0 439 89
nan nan nan 0 334 67
-0.16832662 -0.025172785 0.43992227 0.0020925021 442 89
-0.16577896 -0.025104523 0.43957439 0.0015987579 588 119
-0.16246039 -0.024916269 0.4370876 0.0012516667 879 178
-0.15930815 -0.024748992 0.434928 0.0010930855 1087 220
-0.15610045 -0.024568599 0.43249825 0.0010916776 1089 221
-0.15395933 -0.024553508 0.43294388 0.0011413279 1014 206
-0.15421262 -0.024925018 0.44018781 0.0012959267 811 164
-0.15202226 -0.024906315 0.44052181 0.0011605364 971 197
-0.15101539 -0.025083669 0.44429949 0.0010945632 1152 234
-0.1485441 -0.025019351 0.44377175 0.0010343328 1228 249
-0.14732529 -0.02516716 0.44698122 0.0011286351 1138 231
-0.14687385 -0.025452213 0.45261124 0.0011210165 1060 215
-0.14564535 -0.025608988 0.45594323 0.001123112 1049 213
-0.14256983 -0.025440831 0.45346403 0.0011548331 1107 224
-0.14006993 -0.025371864 0.4527227 0.0010878983 1147 233
-0.1371468 -0.025222955 0.45052636 0.0010253283 1257 255
-0.13513911 -0.025240382 0.45127478 0.00098201772 1309 255
-0.13349763 -0.025327843 0.45325384 0.0010434279 1179 239
-0.13498038 -0.026020376 0.46605042 0.0012029391 985 200
-0.13621081 -0.026686084 0.47836444 0.0012883192 853 173
-0.13100718 -0.026092414 0.46808231 0.0011124744 1049 213
-0.12861608 -0.026048332 0.46762943 0.001070726 1151 233
-0.12679429 -0.026120014 0.4692345 0.0011003921 1095 222
-0.12527972 -0.026258603 0.47202373 0.0011385216 1018 206
-0.12331863 -0.026306849 0.47317162 0.0011515917 993 201
-0.12134124 -0.026353309 0.47426951 0.0011448503 1016 206
-0.11897033 -0.026314439 0.47381356 0.0011475811 1084 220
-0.11571728 -0.026075333 0.46973211 0.0010773895 1128 229
-0.11379637 -0.026132995 0.47097838 0.001099603 1077 218
-0.11180946 -0.02617746 0.47197139 0.0011197125 1038 210
-0.10999347 -0.026264507 0.47371739 0.0011695524 975 198
-0.11178321 -0.027233539 0.49136281 0.0013148448 806 163
-0.11145219 -0.027715342 0.50021088 0.0013907307 738 149
-0.1091421 -0.027714971 0.50034463 0.001410156 754 153
-0.10639049 -0.027600043 0.49839592 0.0013986353 815 165
-0.10231161 -0.027128112 0.4899846 0.0012523427 884 179
-0.099947944 -0.027099924 0.48957366 0.0011994916 956 194
-0.097668521 -0.027093807 0.48954937 0.0012547048 962 195
-0.095885962 -0.027228491 0.49205825 0.0012122224 908 184
-0.093457103 -0.027181728 0.49127755 0.001286903 902 183
-0.091496721 -0.027272278 0.49296856 0.0013174269 854 173
-0.089193337 -0.027262606 0.49283838 0.0012345175 890 180
-0.086884908 -0.027250838 0.49266127 0.0012136599 912 185
-0.084756233 -0.027296327 0.49351069 0.0012111596 918 186
-0.082568593 -0.027324822 0.49404496 0.0012284283 937 190
-0.08031936 -0.027333966 0.49422181 0.0011677106 968 196
-0.07810232 -0.027354915 0.49460521 0.0012243977 963 195
-0.076057628 -0.027439304 0.49612907 0.0012592773 929 188
-0.073858179 -0.02747136 0.49670085 0.0012085154 925 187
-0.071640819 -0.02749859 0.49717978 0.0011924852 938 190
-0.069468185 -0.027545355 0.49800676 0.0012049794 954 193
-0.067187637 -0.027551062 0.49808696 0.0011914839 939 190
-0.065567948 -0.027837753 0.50324267 0.0012210871 922 187
-0.063780844 -0.02807178 0.50744212 0.0012397141 884 179
-0.061271712 -0.027993741 0.505997 0.0012933628 912 185
-0.059033722 -0.028038302 0.50676525 0.0012282832 902 183
-0.057477962 -0.028423915 0.51369488 0.0012698785 861 174
-0.056031756 -0.028899163 0.52224112 0.0013404787 777 157
-0.053489048 -0.028826155 0.52087772 0.001359225 802 162
-0.050969314 -0.028759249 0.51962364 0.0012856553 832 169
-0.048744645 -0.028860442 0.52140588 0.0013154636 798 162
-0.046063654 -0.028687943 0.51824337 0.0012711321 845 171
-0.043595225 -0.028636187 0.51726234 0.0012668521 873 177
-0.041085206 -0.02854955 0.51565188 0.0012577424 921 187
-0.038545828 -0.028430607 0.51345891 0.001185828 952 193
-0.036357038 -0.028571604 0.51596147 0.0013189538 872 177
-0.033128221 -0.027857788 0.50302947 0.0013675771 812 164
-0.030178621 -0.027288919 0.49271825 0.0012711844 849 172
-0.027589152 -0.026979549 0.48709542 0.0013004572 864 175
-0.025306733 -0.026942201 0.48638627 0.0012206457 908 184
-0.022783268 -0.026615988 0.48046482 0.0012211307 906 184
-0.020562042 -0.026610591 0.4803375 0.0012210977 899 182
-0.01842718 -0.026729165 0.48245034 0.0012831672 893 181
-0.016281841 -0.026863039 0.48484179 0.001323269 818 166
-0.014021786 -0.026820149 0.48404577 0.0012253165 901 183
-0.01173613 -0.026702758 0.4819082 0.0012166422 916 186
-0.0094928518 -0.026649429 0.48093 0.0011778624 964 195
-0.0072845002 -0.026691528 0.4816772 0.0011918789 947 192
-0.0050605997 -0.026688606 0.48161519 0.0011957447 936 190
-0.0028366155 -0.026680321 0.48145974 0.0012027808 930 188
-0.00061205361 -0.026586991 0.47977293 0.001208041 921 187
0.0016060368 -0.026644245 0.48080686 0.0013092294 884 179
0.0038748388 -0.026988275 0.48701915 0.0013031026 822 167
0.0062058428 -0.027353847 0.49362382 0.0013225604 794 161
0.0085005173 -0.027405942 0.4945749 0.0013822445 748 151
0.011211689 -0.028494505 0.51423436 0.0014514094 688 139
0.013743874 -0.028827274 0.52025837 0.0015847273 655 133
0.016223645 -0.028967477 0.52281058 0.0014202613 706 143
0.018572172 -0.028867375 0.52102894 0.0013246502 803 163
0.020955 -0.028837427 0.52051646 0.0012353283 912 185
0.023230623 -0.02868128 0.51772875 0.0011733697 962 195
0.025644403 -0.028708922 0.51826119 0.0011999757 925 187
0.028022449 -0.028695256 0.51805037 0.0012933504 917 186
0.030370371 -0.028655317 0.51736748 0.0012355583 906 184
0.03270695 -0.028611276 0.51661229 0.0012633723 858 174
0.034995992 -0.02853445 0.5152669 0.0012641974 846 171
0.037412867 -0.028565006 0.51586181 0.0012879684 828 168
0.040072054 -0.02876585 0.51953351 0.0013394803 778 158
0.042624347 -0.028871624 0.5214895 0.0013824971 747 151
0.045415174 -0.029119043 0.52600515 0.0014282349 699 142
0.047983285 -0.029205814 0.5276196 0.0014592205 677 137
0.050009374 -0.028970215 0.5234099 0.0014991604 736 149
0.051852446 -0.028655168 0.51776332 0.0013091386 812 164
0.054228257 -0.028649306 0.51770186 0.0013107301 800 162
0.056544937 -0.028614011 0.51710725 0.0013387382 781 158
0.058817063 -0.028559936 0.5161714 0.0013516074 806 163
0.06076685 -0.028359633 0.51259023 0.0012674634 854 173
0.063145593 -0.028367024 0.51276016 0.0012665974 852 173
0.065725863 -0.028461145 0.51449502 0.0014167901 788 160
0.068510517 -0.028634137 0.51765251 0.001328432 788 160
0.070750773 -0.028575609 0.5166207 0.0013733861 746 151
0.07274691 -0.028425507 0.51392871 0.001373624 744 151
0.075106435 -0.028422378 0.5138889 0.0013513378 762 154
0.077353448 -0.028378168 0.51310086 0.0013489337 772 156
0.079295933 -0.028228173 0.51039433 0.0013375469 788 160
0.081044875 -0.028019903 0.50662756 0.0012660364 849 172
0.082855493 -0.027844017 0.50343966 0.0012675556 909 184
0.085016631 -0.027792301 0.50248939 0.001197017 935 189
0.086954564 -0.027672289 0.50029677 0.0012061335 972 197
0.089042984 -0.027605129 0.49905139 0.0011963566 966 196
0.091174491 -0.027554374 0.49809384 0.0011807489 952 193
0.093295753 -0.027503094 0.49711743 0.0012530393 909 184
0.095516287 -0.027482836 0.49669188 0.0012239128 931 189
0.098031603 -0.027546356 0.49776974 0.0012768685 891 181
0.1001344 -0.027493702 0.49673727 0.0012225239 899 182
0.10222393 -0.027439849 0.49567163 0.0012918055 911 185
0.10410949 -0.027334791 0.49366933 0.0011853785 944 191
0.10602883 -0.027242914 0.49189287 0.0012770575 919 186
0.10799352 -0.027166294 0.49037942 0.0012370168 965 196
0.11000291 -0.027103836 0.4891082 0.0012234555 999 202
0.11224505 -0.027100077 0.48888209 0.0011748003 959 194
0.11454586 -0.027110357 0.48889399 0.001197162 932 189
0.11641191 -0.027019333 0.48706365 0.0011570553 989 200
0.11834607 -0.026947267 0.48555994 0.001179505 961 195
0.1197238 -0.026753543 0.48184919 0.0011569535 983 199
0.12201259 -0.026766768 0.48184955 0.0011520735 986 200
0.12442975 -0.026807174 0.48232061 0.0011549462 994 201
0.12636939 -0.026745088 0.48092887 0.0011793572 1012 205
0.12834622 -0.026692891 0.47969678 0.001124049 1039 211
0.13023399 -0.026624264 0.47815058 0.0011639339 1019 207
0.13128753 -0.026390247 0.47361714 0.0011229997 1042 211
0.13265735 -0.026226465 0.47032809 0.0011691566 1045 212
0.13448474 -0.026156992 0.46871167 0.001097206 1082 219
0.13620554 -0.026069324 0.46674925 0.0010688052 1130 229
0.13852546 -0.026097283 0.46683475 0.001097696 1088 221
0.1407802 -0.026112286 0.46666434 0.0011131621 1053 213
0.14434655 -0.026366413 0.47073826 0.0012059347 927 188
0.14488375 -0.026067911 0.46492156 0.0011440224 1010 205
0.1457933 -0.025844228 0.46042365 0.0010806068 1103 224
0.14777832 -0.025814923 0.45936766 0.0011111185 1115 226
0.14971696 -0.025778474 0.45815942 0.0010922395 1127 228
0.15111625 -0.025651503 0.45531881 0.0011209147 1125 228
0.15288596 -0.025590073 0.45361844 0.0010380772 1189 241
0.15487348 -0.025566287 0.45255935 0.0011348325 1117 226
0.15646407 -0.025478514 0.45034197 0.0010135191 1230 249
0.15844795 -0.025456276 0.44925705 0.0010303151 1231 250
0.16059162 -0.025459956 0.44860074 0.0010275565 1205 244
0.16213541 -0.025369676 0.44626185 0.0010372155 1227 249
0.16357061 -0.025264947 0.44364509 0.0010033268 1259 255
0.16581921 -0.02528692 0.44322592 0.0010497334 1170 237
0.16827577 -0.025339657 0.44331375 0.0010596192 1155 234
0.17090739 -0.025417123 0.44379997 0.0010380168 1182 240
0.17284299 -0.025390446 0.44243658 0.0010632083 1155 234
0.17389843 -0.025236681 0.43883598 0.0010505725 1174 238
0.17300993 -0.024807854 0.43044576 0.0010021633 1271 255
0.17491417 -0.024784867 0.42908734 0.00096968602 1341 255
0.1739189 -0.024356361 0.42070043 0.00093573151 1418 255
0.17592448 -0.024353143 0.41965246 0.0010510921 1221 248
0.18531112 -0.025360106 0.43594769 0.0014484604 690 140
0.187429 -0.025360841 0.43488246 0.0017142339 554 112
0.19174974 -0.025656305 0.43883988 0.0020010807 478 97
0.19068478 -0.025232589 0.4304862 0.0018185802 480 97
0.19304171 -0.025265979 0.42993647 0.0018071905 485 98
0.19309688 -0.025000634 0.42430592 0.001701312 531 107
0.19427916 -0.024885325 0.42123574 0.0018381574 539 109
0.20129654 -0.02551198 0.4307043 0.0021870921 363 73
0.23929627 -0.03001117 0.50533128 0.0059117572 118 23
0.2452962 -0.030445592 0.51131368 0.0063240123 103 20
0.24440762 -0.030024886 0.50295955 0.0045155119 175 35
0.24553746 -0.029858146 0.49891827 0.002843759 277 56
nan nan nan 0 333 67
nan nan nan 0 261 53
0.32612321 -0.03848806 0.63866943 0.0037324347 179 36
nan nan nan 0 153 31
nan nan nan 0 164 33
0.30742505 -0.035242017 0.58146352 0.0037684452 197 40
-0.16679244 -0.015519324 0.27857387 0.0047072624 152 30
-0.18953025 -0.017785352 0.3188822 0.0065251663 111 22
-0.18969429 -0.017953837 0.32159659 0.0098615419 72 14
-0.17159675 -0.016381862 0.29321986 0.0067598717 97 19
-0.16824907 -0.016202824 0.28986102 0.0041663661 152 30
-0.16650696 -0.016176611 0.28930187 0.0038701987 169 34
-0.1657754 -0.016248982 0.29057112 0.003454125 194 39
-0.16665761 -0.016482258 0.29478475 0.0032092549 214 43
-0.16599162 -0.016565256 0.29637992 0.0031843004 235 47
-0.16552979 -0.016670335 0.2984401 0.0040130019 196 39
-0.16736224 -0.017010545 0.30478403 0.0042771338 146 29
-0.16697249 -0.017129131 0.30723244 0.0039553111 163 33
-0.16686349 -0.017279018 0.31031436 0.0036036011 182 36
-0.16685604 -0.017442368 0.31370997 0.0034928813 195 39
-0.16696054 -0.017620668 0.31744534 0.0045210538 148 30
-0.16737691 -0.017835654 0.32191145 0.0058883731 99 20
-0.16538526 -0.017795736 0.32183591 0.0058403867 121 24
nan nan nan 0 141 28
nan nan nan 0 118 23
nan nan nan 0 99 20
-0.30326349 -0.033959828 0.61988705 0.0073574418 91 18
-0.30291033 -0.034268983 0.62711978 0.0078546498 78 15
-0.29658118 -0.03390146 0.62200218 0.0089022033 68 13
-0.28052375 -0.032402527 0.596062 0.0094437767 65 13
-0.27780858 -0.032429278 0.59813172 0.0088838497 73 14
-0.27817386 -0.032820046 0.6069423 0.0095570376 66 13
-0.28331807 -0.033789225 0.62651479 0.0075551309 81 16
-0.28279302 -0.034096107 0.63386059 0.0064724949 96 19
-0.28062928 -0.034210026 0.63762498 0.0056217634 114 23
nan nan nan 0 181 36
nan nan nan 0 233 47
nan nan nan 0 122 24
-0.27934492 -0.035632264 0.67073172 0.0064767236 96 19
-0.27405164 -0.035366997 0.66729116 0.0067582382 89 18
-0.27003545 -0.035262205 0.66682255 0.0059392955 104 21
