# .PCD v0.7 - Point Cloud Data file format
VERSION 0.7
FIELDS x y z noise intensity gray
SIZE 4 4 4 4 2 1
TYPE F F F F U U
COUNT 1 1 1 1 1 1
WIDTH 998
HEIGHT 1
VIEWPOINT 0 0 0 1 0 0 0
POINTS 998
DATA ascii
0.073459961 0.1300367 0.67120278 0.0048181526 127 25
0.076244868 0.12950745 0.66838193 0.004718618 146 28
0.078776307 0.12860556 0.66363114 0.004338521 162 32
0.081496589 0.12806791 0.66075283 0.0039212476 167 33
0.084521234 0.12803012 0.66044509 0.0038354858 170 33
0.087698959 0.12821873 0.66129583 0.0043027457 164 32
0.090675764 0.12811081 0.66060746 0.0039852387 161 31
0.093428761 0.12770399 0.65836799 0.0046657142 149 29
0.096245952 0.12740779 0.65668875 0.0043635825 146 28
0.098929644 0.12695839 0.65420938 0.0044216099 144 28
0.099790685 0.12426594 0.64016414 0.0045357784 146 28
0.10269944 0.12420508 0.63966715 0.0047530755 138 27
0.10485327 0.12326019 0.63460612 0.0050960188 125 24
0.10893737 0.12457407 0.64116037 0.0061615044 104 20
0.11230041 0.12501563 0.64320761 0.0062781149 92 18
0.11552992 0.12528953 0.64437616 0.0074556279 77 15
0.11946136 0.12629174 0.64927244 0.0076608723 76 15
0.12297425 0.12681311 0.65167713 0.0071636783 77 15
0.12579864 0.12661649 0.65037459 0.0072220457 78 15
0.12840976 0.12621944 0.64802593 0.0068466356 81 16
0.131126 0.12594154 0.64627242 0.0074072359 79 15
0.13319609 0.12506934 0.64145327 0.006544143 88 17
0.13538991 0.12434892 0.63739753 0.0066466532 87 17
0.13822038 0.12423156 0.63641512 0.0064619905 92 18
0.13395146 0.11787193 0.60345459 0.003474561 163 32
0.13453348 0.11595438 0.59324241 0.0025624074 301 59
0.13764863 0.11625334 0.59435451 0.0022671148 349 69
0.13937545 0.11539111 0.58951038 0.0021525426 366 72
0.14134933 0.11476281 0.58584505 0.0021610763 387 76
0.14377606 0.11451904 0.58412308 0.0021685287 375 74
0.1459969 0.1141234 0.58160585 0.0022782374 338 67
nan nan nan 0 340 67
nan nan nan 0 380 75
nan nan nan 0 418 82
nan nan nan 0 441 87
nan nan nan 0 468 92
nan nan nan 0 454 90
nan nan nan 0 470 93
nan nan nan 0 519 102
nan nan nan 0 546 108
nan nan nan 0 556 110
nan nan nan 0 585 116
nan nan nan 0 568 112
nan nan nan 0 544 107
0.14789812 0.091710463 0.45948818 0.0017008219 542 107
0.15187901 0.092808574 0.4642359 0.0017428603 523 103
0.15438849 0.092988953 0.4643566 0.0018442924 484 96
0.15537386 0.092259228 0.45991111 0.0018267969 480 95
0.15337269 0.089801207 0.44685274 0.0017301256 521 103
0.15560237 0.089853935 0.44628453 0.0017316418 543 107
0.15635513 0.08906392 0.44151306 0.0016837574 564 111
0.15462339 0.086898774 0.42992949 0.0015489605 625 124
0.15700586 0.087072484 0.4299143 0.0015465338 636 126
0.15914702 0.087109551 0.42920047 0.0015968772 619 122
0.16389795 0.088555768 0.4353936 0.0016606335 586 116
0.16757475 0.089392252 0.43854508 0.0017848149 555 110
0.16988957 0.089490324 0.43804592 0.0016975071 534 105
0.17230104 0.089636251 0.43776232 0.0017848795 540 107
0.17372388 0.089270569 0.43496898 0.0016317959 564 111
0.17592816 0.089310437 0.43414444 0.0016564078 575 114
0.17911455 0.089841962 0.43569571 0.0016552047 566 112
0.18224332 0.090332381 0.43703178 0.0016866698 551 109
0.17995612 0.088158153 0.42549545 0.001638968 576 114
0.18275942 0.088499084 0.42612392 0.001597312 588 116
nan nan nan 0 575 114
0.18507406 0.087599702 0.41981244 0.0016229594 588 116
nan nan nan 0 595 118
nan nan nan 0 625 124
nan nan nan 0 686 136
nan nan nan 0 738 146
nan nan nan 0 827 164
nan nan nan 0 731 145
0.27494347 0.12062038 0.56979543 0.0016457975 526 104
0.2771388 0.12032647 0.56749988 0.0023125079 363 72
nan nan nan 0 403 79
nan nan nan 0 621 123
nan nan nan 0 1054 209
nan nan nan 0 544 107
nan nan nan 0 345 68
nan nan nan 0 353 70
nan nan nan 0 358 71
0.26062787 0.10451355 0.48977512 0.0025325252 292 57
-0.3323518 0.12081391 0.56238812 0.0043502832 131 25
-0.32622334 0.11959729 0.55551779 0.0027932012 232 46
-0.32537031 0.12031045 0.55768603 0.0054516909 143 28
-0.33636269 0.12545395 0.58041185 0.0037454045 132 26
-0.32691941 0.12299886 0.56803769 0.0023371303 356 70
nan nan nan 0 369 73
nan nan nan 0 322 63
nan nan nan 0 430 85
nan nan nan 0 338 67
-0.32100424 0.12629943 0.57941079 0.0028601943 254 50
-0.31925973 0.12677315 0.58110332 0.0052289707 135 26
-0.31428352 0.12596051 0.57700652 0.0031205516 159 31
-0.31384367 0.12696779 0.58135539 0.0041968147 163 32
nan nan nan 0 97 19
nan nan nan 0 299 59
nan nan nan 0 1093 216
-0.29423586 0.12369073 0.56642199 0.00094941555 1465 254
-0.29606965 0.12569055 0.57588208 0.0014171423 779 154
nan nan nan 0 348 69
-0.30743098 0.13314307 0.61102259 0.001994173 367 72
-0.29401359 0.12862788 0.59094745 0.0016115305 572 113
-0.29108214 0.12865454 0.59182078 0.0020726081 408 80
-0.28763983 0.12845357 0.59174538 0.0018941906 378 75
-0.28284425 0.1276377 0.58892298 0.0015501317 643 127
-0.27833357 0.12693447 0.58669418 0.0015574117 506 100
nan nan nan 0 1074 213
nan nan nan 0 403 79
-0.27949324 0.13165271 0.61211109 0.0021919124 281 55
-0.26988167 0.12853344 0.59890062 0.0016532628 555 110
-0.26542678 0.12782773 0.59694177 0.001950955 345 68
-0.26116732 0.1272012 0.59537464 0.0015182672 633 125
-0.26749992 0.13177827 0.61823428 0.0025242537 299 59
nan nan nan 0 343 68
nan nan nan 0 358 71
-0.24787314 0.12645632 0.5974921 0.0018136307 436 86
-0.24503751 0.12651081 0.59916699 0.0017625915 489 97
-0.24321106 0.12709402 0.60334748 0.0018093892 468 92
-0.23919222 0.12653178 0.60208023 0.0016723145 555 110
-0.23311679 0.12485406 0.59546566 0.001140038 714 141
-0.22648512 0.12283236 0.58715218 0.00099383562 1359 254
-0.22319803 0.12259606 0.58732742 0.0015089284 754 149
-0.22256202 0.12382866 0.59452635 0.0022244207 395 78
nan nan nan 0 412 81
-0.21788312 0.12444624 0.60001087 0.00089304318 1303 254
nan nan nan 0 1789 254
nan nan nan 0 2711 254
nan nan nan 0 2803 254
nan nan nan 0 2775 254
nan nan nan 0 2730 254
nan nan nan 0 2638 254
nan nan nan 0 2170 254
nan nan nan 0 1933 254
nan nan nan 0 2392 254
nan nan nan 0 2301 254
-0.1887425 0.12625112 0.62044507 0.0011426207 925 183
nan nan nan 0 885 175
nan nan nan 0 312 61
-0.20048822 0.14067362 0.69410235 0.0059563089 109 21
-0.20012267 0.1427467 0.70519912 0.0062943059 96 19
-0.1976116 0.14333351 0.70893461 0.0064308355 91 18
-0.1937204 0.14292221 0.70770031 0.0064793141 95 18
-0.18651903 0.14001176 0.6940397 0.0069851847 84 16
-0.17881957 0.13661736 0.6779151 0.0064266594 97 19
-0.17413823 0.13544765 0.67277628 0.0060273046 108 21
-0.17095445 0.13542113 0.67328048 0.0056375442 112 22
-0.16937916 0.13669172 0.68021047 0.0056342296 111 22
-0.16800597 0.13817713 0.68819362 0.0060920818 101 20
-0.16419804 0.13767895 0.68627429 0.0057619596 110 21
-0.16022946 0.1370236 0.68354023 0.0050439304 120 23
-0.15173802 0.1323953 0.66094208 0.0043607801 143 28
-0.14860879 0.13235085 0.66118598 0.0045822207 148 29
-0.14648527 0.13321915 0.66596925 0.0051944857 135 26
-0.1450066 0.13472411 0.67392033 0.0056633912 109 21
-0.14559959 0.13826281 0.69203806 0.007331904 90 17
-0.1445179 0.14033517 0.70281094 0.0075733373 82 16
-0.14276259 0.14183402 0.71070039 0.0083092684 70 13
-0.13877706 0.14113569 0.70756173 0.0084377965 68 13
-0.13654006 0.14222483 0.71336496 0.0087870862 68 13
-0.1330464 0.14202659 0.71269381 0.0096931085 67 13
-0.1294924 0.1417522 0.71162105 0.0086042769 70 13
-0.12614641 0.14169711 0.71163082 0.0075041228 78 15
-0.12295531 0.14181775 0.71250606 0.0076322984 76 15
-0.11831494 0.14022732 0.70476592 0.0061827279 95 18
-0.11494774 0.14009847 0.70435286 0.0055665993 104 20
-0.11171451 0.14013016 0.70473206 0.0056412369 110 21
-0.10808291 0.13964906 0.70251739 0.0055326745 111 22
-0.10488061 0.13970996 0.70301563 0.0057738051 111 22
-0.10091048 0.13871929 0.69820815 0.0060863737 104 20
-0.097496048 0.13845228 0.69702929 0.0055978047 109 21
-0.093827881 0.13779441 0.69387031 0.0056526717 111 22
-0.089891806 0.13668263 0.6884129 0.0062409956 109 21
-0.086483732 0.13632163 0.6867252 0.0056974133 106 21
-0.082975321 0.13576895 0.68406141 0.0056430683 106 21
-0.079868592 0.13585581 0.68461031 0.0056790663 106 21
-0.077313349 0.13692653 0.69010955 0.0062532909 107 21
-0.074267998 0.13718398 0.69150257 0.0059899813 105 20
-0.07137417 0.13775694 0.69447917 0.0054152799 116 23
-0.069006652 0.13944735 0.7030831 0.0054676584 117 23
-0.066372007 0.14073807 0.70966667 0.0051807985 126 25
-0.063591518 0.14183742 0.71527994 0.0055251447 129 25
-0.060788576 0.14300424 0.72122842 0.0053973626 117 23
-0.058694903 0.14607129 0.73675632 0.0074632266 85 16
-0.056238424 0.14855678 0.74934781 0.0090425815 69 13
-0.052808598 0.14862825 0.74975824 0.008778614 73 14
-0.048865888 0.14716515 0.74242204 0.0080898907 83 16
-0.044827044 0.14517027 0.73239785 0.0065816413 87 17
-0.040980287 0.14352316 0.72412282 0.0058496459 107 21
-0.037423689 0.14269021 0.71995127 0.0055222558 115 22
-0.033054411 0.13829505 0.69780171 0.0052499678 117 23
-0.029611055 0.13724381 0.69252062 0.0060860435 112 22
-0.026404951 0.13717106 0.69217372 0.0060182735 101 20
-0.023024246 0.13604659 0.68651688 0.0071683852 85 16
-0.019864094 0.13607466 0.68667328 0.0081186071 73 14
-0.016499637 0.13444857 0.67847973 0.007101079 80 15
-0.013325999 0.13398051 0.67612749 0.0080049746 81 16
-0.0099562705 0.13065347 0.65934521 0.0063768504 91 18
-0.0069046277 0.13041118 0.65812784 0.0059267776 100 19
-0.0038698439 0.13035709 0.65785837 0.0063321744 102 20
-0.00084203132 0.13099617 0.66108507 0.0058648847 102 20
0.0022432522 0.13328359 0.67262822 0.0065240525 93 18
0.0054222904 0.13525547 0.68257713 0.0077714361 81 16
0.0092254104 0.14563105 0.73493344 0.0085598733 70 13
0.012516858 0.14452575 0.7293486 0.0090852538 62 12
0.015042432 0.13691744 0.69094443 0.0072771963 74 14
0.017991848 0.13515149 0.6820218 0.0054004719 106 21
0.020962039 0.13404368 0.67641819 0.0054578106 121 24
0.023955584 0.13335274 0.672916 0.0045339926 137 27
0.027066704 0.1333997 0.6731348 0.0044183158 145 28
0.030143445 0.13328497 0.67253494 0.0045425352 145 28
0.033059623 0.13254789 0.66879207 0.0044113132 138 27
0.036073778 0.13229586 0.66749364 0.0048049157 137 27
0.039050877 0.13195823 0.66575998 0.0043002134 147 29
0.041908409 0.13129522 0.66238135 0.0042967605 150 29
0.044949297 0.13125768 0.6621545 0.0041966606 149 29
0.048193365 0.13178052 0.66475034 0.0044035567 148 29
0.051309776 0.13191263 0.66537046 0.0044747335 140 27
0.054181959 0.13143735 0.6629222 0.00441687 145 28
0.057008822 0.13090877 0.66020042 0.0044547855 136 26
0.060697615 0.1323127 0.66721874 0.0049870657 126 25
0.064330071 0.13346426 0.67295742 0.0063327434 95 18
0.067475945 0.13354675 0.67329836 0.0066071656 87 17
0.070376508 0.13315786 0.67125636 0.0057320935 97 19
0.073259234 0.13276941 0.66920978 0.0052804817 117 23
0.076152883 0.13243139 0.66741025 0.0043604411 136 26
0.078211814 0.13072447 0.65870547 0.0044421894 151 29
0.080963023 0.1302591 0.65624982 0.0038513467 166 32
0.084011436 0.1302882 0.656277 0.0038382038 164 32
0.086933456 0.1301261 0.65533167 0.0039270497 163 32
0.090539679 0.13096458 0.65941477 0.0040107607 158 31
0.093312532 0.13058229 0.65734017 0.004211254 151 29
0.094929896 0.12865804 0.64749527 0.0045427573 140 27
0.096555665 0.12686245 0.63829094 0.0044156229 144 28
0.099210501 0.12648533 0.63621467 0.0047035622 137 27
0.10204101 0.12634744 0.6353299 0.0056699924 121 24
0.10599151 0.12756522 0.64124739 0.0058755134 106 21
0.10940606 0.12808922 0.64366072 0.0061444012 98 19
0.11243901 0.12815052 0.64373356 0.0069744005 85 16
0.11580533 0.12857878 0.6456337 0.0078384317 76 15
0.11966665 0.12952125 0.65009731 0.0079608411 74 14
0.12323435 0.13010745 0.65275294 0.0071893996 78 15
0.12577954 0.12961185 0.64996368 0.0071244128 79 15
0.12823485 0.12904902 0.64682192 0.0065566045 88 17
0.13092856 0.12874636 0.64496779 0.0063477135 95 18
0.13320038 0.12805167 0.64113325 0.0063337781 98 19
0.13552758 0.12743942 0.63769537 0.006234834 96 19
0.13493572 0.12416729 0.62093896 0.0051950272 108 21
0.13185364 0.11878879 0.59365594 0.0026932217 253 50
0.13396604 0.11821482 0.59038305 0.002276778 339 67
0.13616362 0.11773758 0.58757585 0.0021253352 372 73
0.13827482 0.11720593 0.58447909 0.0020844173 388 76
0.13981885 0.11622339 0.5791176 0.0020734174 395 78
nan nan nan 0 363 72
nan nan nan 0 387 76
nan nan nan 0 433 85
nan nan nan 0 478 94
0.12717213 0.096392833 0.47809654 0.0018408414 494 98
0.12843616 0.095664427 0.47398281 0.0017808981 497 98
0.12792659 0.093662292 0.46355078 0.0017136972 534 105
nan nan nan 0 550 109
nan nan nan 0 561 111
0.13082109 0.091126181 0.44937342 0.0016395391 580 115
0.13276622 0.091006666 0.44819766 0.0016359251 578 114
0.13081564 0.088262446 0.43409127 0.0015345821 618 122
0.13248993 0.088010982 0.43224195 0.0015234197 640 127
0.13584612 0.088867411 0.43580607 0.0015912615 593 117
0.13779336 0.08879029 0.43476266 0.0015986616 597 118
nan nan nan 0 602 119
nan nan nan 0 575 114
nan nan nan 0 532 105
0.15075767 0.09164983 0.44576985 0.0017613991 507 100
0.14863375 0.089098834 0.43257412 0.0016432698 572 113
0.15030807 0.088863529 0.43062192 0.0016817537 592 117
0.1526929 0.089048982 0.43068591 0.0016794455 598 118
0.15776752 0.090777129 0.43816999 0.0016336227 589 116
0.15989694 0.090787396 0.43732283 0.0016799737 577 114
0.16030265 0.089831442 0.4318096 0.0015967534 596 118
0.16093048 0.089022972 0.42700341 0.0015793351 607 120
nan nan nan 0 613 121
nan nan nan 0 606 120
nan nan nan 0 588 116
nan nan nan 0 631 125
nan nan nan 0 637 126
nan nan nan 0 606 120
nan nan nan 0 580 115
0.16988976 0.085208602 0.40122062 0.0016375156 584 115
0.17129508 0.084922791 0.39893061 0.001550277 616 122
nan nan nan 0 616 122
0.17874357 0.086617954 0.40500531 0.001559432 631 125
nan nan nan 0 679 134
0.16648136 0.078897275 0.36726269 0.0013927059 743 147
0.16358154 0.076677844 0.35617399 0.0013400129 780 154
0.16626108 0.077093363 0.35737681 0.001420485 761 151
nan nan nan 0 799 158
nan nan nan 0 719 142
nan nan nan 0 654 129
nan nan nan 0 418 82
nan nan nan 0 376 74
nan nan nan 0 482 95
nan nan nan 0 465 92
nan nan nan 0 436 86
nan nan nan 0 404 80
nan nan nan 0 415 82
nan nan nan 0 378 75
0.21721424 0.08917857 0.40819469 0.0022804751 352 69
-0.32593188 0.12123585 0.55198032 0.0022375567 416 82
-0.32625958 0.12239255 0.55601853 0.0029172099 238 47
-0.32307345 0.12223962 0.55416518 0.0029789747 254 50
-0.32848412 0.125365 0.56721872 0.0035591361 152 30
-0.31590062 0.12161755 0.54925579 0.0023544277 350 69
-0.3135356 0.12177265 0.54902542 0.0053829774 137 27
nan nan nan 0 104 20
nan nan nan 0 710 140
nan nan nan 0 741 147
-0.31979033 0.12874824 0.57743788 0.0031557973 228 45
-0.31696236 0.12878823 0.57710046 0.0025355981 255 50
-0.3127799 0.12827352 0.57438278 0.0021170101 306 60
-0.30524057 0.12635948 0.56551164 0.0026028503 386 76
-0.31096736 0.12995294 0.58139521 0.0045406912 129 25
nan nan nan 0 254 50
-0.30594018 0.13032803 0.58301371 0.0014249403 620 123
-0.2996121 0.12888022 0.57667732 0.0011392995 1050 208
-0.29666346 0.12887189 0.57689351 0.0012329638 985 195
-0.29648256 0.13007767 0.5826602 0.0018761645 537 106
nan nan nan 0 317 62
-0.2940478 0.13163491 0.59071773 0.0017724738 477 94
-0.29086891 0.1315504 0.59103984 0.0022644298 382 75
-0.28799784 0.13160481 0.59208685 0.001702465 418 82
-0.28129545 0.1298912 0.58526325 0.0016951837 654 129
-0.28250572 0.13183375 0.59500378 0.0018029824 447 88
-0.28049606 0.13229926 0.59817761 0.0019931807 482 95
-0.28374672 0.1352828 0.61283976 0.0021847282 363 72
-0.27266398 0.13142307 0.59655881 0.0014495307 542 107
-0.2653999 0.12933882 0.58833832 0.0014055473 784 155
-0.26392797 0.13006221 0.59292364 0.0014832565 607 120
-0.2608887 0.13002084 0.59406865 0.0016127335 656 130
nan nan nan 0 286 56
-0.2718958 0.13864776 0.63642019 0.0044173426 179 35
nan nan nan 0 122 24
nan nan nan 0 266 52
-0.24213181 0.12791818 0.59133303 0.0012558197 716 142
-0.23837505 0.12746412 0.59061897 0.0012699543 818 162
-0.23936887 0.12957034 0.60177815 0.0018502997 537 106
-0.23888125 0.13091716 0.60943508 0.0016304164 513 101
-0.2291669 0.12717752 0.59337205 0.0010835079 942 186
-0.22489545 0.12640148 0.59106886 0.0011875979 905 179
-0.22113322 0.12589528 0.58999181 0.0018106257 501 99
-0.22685595 0.13084659 0.61451036 0.0023180777 332 65
-0.22761901 0.13303077 0.62607652 0.0015754479 508 100
nan nan nan 0 1976 254
nan nan nan 0 2320 254
nan nan nan 0 2764 254
nan nan nan 0 2785 254
nan nan nan 0 2773 254
nan nan nan 0 2736 254
nan nan nan 0 2506 254
nan nan nan 0 2388 254
nan nan nan 0 2025 254
nan nan nan 0 2648 254
nan nan nan 0 1294 254
nan nan nan 0 2175 254
nan nan nan 0 1581 254
-0.20215033 0.14513883 0.69922662 0.0052522677 140 27
-0.1990739 0.14530128 0.7008875 0.0054256907 108 21
-0.19571584 0.1452602 0.70153272 0.0055136723 111 22
-0.19162928 0.14466771 0.69947737 0.006083915 101 20
-0.18361142 0.14103487 0.68266594 0.0062060426 93 18
-0.17743997 0.13871635 0.67215335 0.0051519391 117 23
-0.17404869 0.13852668 0.67191315 0.0053206948 121 24
-0.17115752 0.13873544 0.67357606 0.0053262589 112 22
-0.16908328 0.13962664 0.67852861 0.0056355637 113 22
-0.1664077 0.14004584 0.6811651 0.0052588372 112 22
-0.16301742 0.1398682 0.68087232 0.0056043887 114 22
-0.15808898 0.13833751 0.67395967 0.0048428397 119 23
-0.151585 0.13533799 0.65984857 0.0044670245 152 30
-0.14870414 0.13551605 0.66119534 0.0043792571 146 28
-0.14659849 0.13642301 0.66607875 0.0048589837 132 26
-0.14583382 0.13864402 0.67736536 0.0055461167 115 22
-0.14691339 0.14275524 0.69788384 0.0069771712 87 17
-0.14378747 0.14287336 0.69887209 0.008197899 72 14
-0.14111078 0.14345364 0.70210123 0.0083825309 70 13
-0.13952145 0.14519297 0.71098846 0.0089443279 69 13
-0.13665891 0.14565946 0.71362817 0.0087756971 68 13
-0.13292025 0.14519213 0.71167314 0.0089150965 67 13
-0.12912022 0.14463224 0.70924348 0.0085497638 68 13
-0.12575936 0.14454792 0.70912665 0.0086736968 71 14
-0.12292605 0.14508165 0.71202552 0.0065077455 89 17
-0.11944737 0.14486219 0.71121162 0.005911354 98 19
-0.11515179 0.14361145 0.70531642 0.005507689 108 21
-0.11126344 0.14281043 0.7016114 0.0052462337 117 23
-0.10803075 0.14282812 0.70191312 0.0054515474 106 21
-0.10472949 0.14275344 0.70174712 0.005472885 110 21
-0.10149821 0.14277242 0.70202839 0.0055594887 113 22
-0.097382233 0.14150706 0.69598061 0.0062075397 115 22
-0.093683086 0.1407817 0.69257438 0.0053852163 109 21
-0.089738823 0.13962366 0.68702644 0.0055622282 108 21
-0.086484134 0.13949291 0.68652183 0.006118346 107 21
-0.083235323 0.13936208 0.68600637 0.0056986804 105 20
-0.080084972 0.13939223 0.68627411 0.0056591672 107 21
-0.077227026 0.13995481 0.68915462 0.0057202252 106 21
-0.074050382 0.13996334 0.68929911 0.0062478436 102 20
-0.070826083 0.13987854 0.68897581 0.0053795972 111 22
-0.068590157 0.14182949 0.69867343 0.005162396 119 23
-0.066021457 0.14325084 0.70575714 0.0047491528 125 24
-0.063370079 0.14463097 0.71263242 0.004817815 134 26
-0.060465604 0.14555284 0.71724457 0.0052563464 119 23
-0.057958018 0.14759217 0.7273584 0.0060859583 103 20
-0.055130996 0.14901865 0.73444772 0.0074664131 84 16
-0.051550876 0.148463 0.73176301 0.0073495465 80 15
-0.048012134 0.14795701 0.72931755 0.0067979461 85 16
-0.044784699 0.1484064 0.7315765 0.0065010819 96 19
-0.040976204 0.14684665 0.72392684 0.0057340609 108 21
-0.037256196 0.14535552 0.71661043 0.0052914415 124 24
-0.033518843 0.14349993 0.70749253 0.0049102511 128 25
-0.030005539 0.1423068 0.70163661 0.0052011213 117 23
-0.026633909 0.14157854 0.69806904 0.0057883561 110 21
-0.023378434 0.14135234 0.69697386 0.0073302365 81 16
-0.020016007 0.1403044 0.69182372 0.0087358635 69 13
-0.016688569 0.13915099 0.68615043 0.0086197834 67 13
-0.013416971 0.13803262 0.68064708 0.0083121397 70 13
-0.010030154 0.13468438 0.66414547 0.0072109518 88 17
-0.0069215549 0.13377149 0.65965015 0.0063993093 98 19
-0.0038817194 0.13379833 0.65978646 0.0059788898 96 19
-0.00084578682 0.1346408 0.66394252 0.0066513466 97 19
0.002240693 0.13622798 0.67176884 0.0062462837 93 18
0.0054571074 0.13928999 0.68686539 0.007408502 81 16
0.0092127938 0.14881441 0.73382652 0.0092686992 68 13
0.012551953 0.14830188 0.73129112 0.0091599347 61 12
0.014955865 0.13929567 0.68687046 0.0071853148 76 15
0.017894065 0.13754329 0.67821711 0.0054658698 107 21
0.020927552 0.1369357 0.67520595 0.0048675356 127 25
0.023978805 0.13658661 0.67346686 0.0047676535 128 25
0.027003134 0.13618179 0.6714502 0.004599202 138 27
0.030073393 0.13606803 0.67086571 0.0045607029 135 26
0.033115659 0.13586064 0.66981637 0.0045780898 138 27
0.035977338 0.13501094 0.66559714 0.0045168363 136 26
0.03886909 0.13439883 0.6625458 0.0041871257 144 28
0.04167987 0.13361631 0.65865099 0.0040594842 157 31
0.044680748 0.1335081 0.65807617 0.0040869918 157 31
0.048165411 0.13476731 0.66423666 0.0043753614 149 29
0.051341705 0.13506471 0.66565144 0.0048865336 144 28
0.054237545 0.13463238 0.66346473 0.0048199329 146 28
0.057197127 0.13439599 0.6622386 0.0046663005 139 27
0.060416386 0.13476279 0.66397876 0.0053573311 117 23
0.064449847 0.13682272 0.67405343 0.006926042 84 16
0.067614667 0.1369338 0.67451942 0.0068015843 81 16
0.070302904 0.13611241 0.67038548 0.0057107918 101 20
0.073107064 0.13557523 0.66764486 0.00515685 118 23
0.075643845 0.13460572 0.66276848 0.0046233959 128 25
0.078043945 0.13347784 0.65710568 0.0042633554 147 29
0.080765381 0.13296336 0.65445507 0.0041121338 148 29
0.083551809 0.13258915 0.65248674 0.0039413697 163 32
0.086511567 0.13250645 0.65194386 0.0041736774 165 32
0.088715017 0.1313099 0.64591181 0.0040628752 154 30
0.0916458 0.13123274 0.6453771 0.0041226065 155 30
0.093608052 0.12981728 0.63825154 0.0043604979 143 28
0.096280523 0.12944317 0.63623649 0.0051481593 132 26
0.098862223 0.12897284 0.63373774 0.0052157808 120 23
0.10186795 0.12906682 0.63399976 0.0060935528 106 21
0.1054598 0.12987739 0.63776708 0.0061997925 97 19
0.10963862 0.13134699 0.64475274 0.0068529109 87 17
0.11309005 0.13189039 0.64717376 0.0074219215 76 15
0.11616645 0.13197961 0.6473496 0.0078730322 78 15
0.11974098 0.13261604 0.65019184 0.0082490211 72 14
0.12291232 0.13278566 0.65072697 0.0075459303 76 15
0.12556069 0.13239568 0.64850277 0.006331936 90 17
0.12819476 0.13200924 0.64627981 0.0069797058 87 17
0.13058531 0.13139544 0.64292741 0.006056597 97 19
0.13291323 0.1307475 0.63939202 0.0060305148 95 18
0.13498086 0.12987743 0.63475496 0.0054971287 104 20
0.13014989 0.1225489 0.59855771 0.0030985984 197 39
0.13169719 0.12140743 0.59258598 0.0023713377 311 61
0.13336697 0.12042338 0.5873692 0.0023400348 347 68
0.13588804 0.12023214 0.58600229 0.002155825 372 73
nan nan nan 0 365 72
nan nan nan 0 387 76
nan nan nan 0 419 83
nan nan nan 0 503 99
0.118189 0.095017664 0.46112466 0.0016332222 559 110
0.12057576 0.095196895 0.46153921 0.0017615955 547 108
0.12276903 0.095219746 0.46117413 0.0017510485 533 105
0.12521352 0.095433265 0.46171021 0.0017457394 532 105
0.12456093 0.093319222 0.45097435 0.0016115764 562 111
0.12289306 0.090528086 0.43697208 0.0015297224 618 122
0.12493926 0.090519756 0.43639675 0.0015454035 626 124
0.12669508 0.09030474 0.43480435 0.0015470375 627 124
0.12866986 0.090250134 0.43396387 0.0015051415 641 127
0.13016261 0.089864448 0.43151176 0.0015215187 644 127
0.12971541 0.088172048 0.42277652 0.0014944195 653 129
0.13246079 0.08866822 0.42452073 0.001510532 651 129
0.1338049 0.088225581 0.42174685 0.0015655837 629 124
0.13316554 0.086507514 0.41286939 0.0015390817 631 125
0.13512529 0.086503327 0.41216218 0.0015307724 646 128
0.14044841 0.088621482 0.42152718 0.001629449 592 117
0.14645125 0.091102593 0.43255693 0.0016846766 549 108
0.14834066 0.090991348 0.43123457 0.0016615307 569 112
0.15040441 0.090988643 0.43040422 0.0016379856 600 119
0.15105951 0.090145394 0.42558289 0.0016121069 602 119
0.15304071 0.090105481 0.42454049 0.0015736126 601 119
nan nan nan 0 647 128
0.15064843 0.086384863 0.4053134 0.001500406 663 131
nan nan nan 0 668 132
nan nan nan 0 649 128
nan nan nan 0 661 131
nan nan nan 0 660 130
0.15702434 0.084532075 0.39219424 0.0014858922 663 131
0.15370214 0.081743367 0.37837002 0.0014441354 690 136
0.15371904 0.080775894 0.37301299 0.00143717 692 137
0.15875766 0.082438931 0.37979543 0.0015037778 648 128
0.16380882 0.084069587 0.38639641 0.0015518266 621 123
0.16583981 0.084130511 0.38577226 0.001549708 632 125
0.16354126 0.082018711 0.37521932 0.0014704872 689 136
0.16287594 0.080764376 0.36864141 0.0013579847 756 150
0.163553 0.080196217 0.36523572 0.0013264528 785 155
0.16367103 0.079369493 0.36069277 0.0013761264 763 151
0.16449942 0.078901514 0.35782394 0.0014403542 740 146
0.16616231 0.078839585 0.35683766 0.0015072342 682 135
0.17111093 0.080321312 0.3628675 0.0015315627 640 127
nan nan nan 0 595 118
nan nan nan 0 510 101
nan nan nan 0 432 85
nan nan nan 0 354 70
nan nan nan 0 431 85
0.19257848 0.084959485 0.38072574 0.0018108332 502 99
0.19246729 0.084067434 0.37644973 0.0018246071 510 101
0.19683567 0.085130297 0.38100067 0.0020268597 456 90
0.19917396 0.085303016 0.38163936 0.0020032104 425 84
0.20155953 0.085492462 0.38242754 0.0020726824 415 82
0.20546913 0.086318545 0.38613862 0.0021910546 378 75
nan nan nan 0 483 95
-0.32796979 0.12583068 0.55939299 0.0040466823 165 32
-0.33086473 0.12803307 0.56797439 0.0024570539 257 51
-0.32510108 0.12689406 0.56179339 0.003056413 277 54
-0.32371446 0.12745851 0.56323361 0.0024395594 299 59
-0.31488129 0.12507506 0.55173886 0.0030456127 264 52
nan nan nan 0 136 26
nan nan nan 0 721 143
nan nan nan 0 946 187
-0.31812128 0.13098744 0.57466179 0.0042830249 162 32
-0.31590271 0.13127525 0.57537013 0.0021366617 287 56
-0.31318134 0.13135755 0.57527769 0.0021408733 444 88
-0.31201813 0.13210104 0.57818323 0.0022611574 326 64
-0.31035474 0.13264494 0.58031994 0.0019857073 345 68
nan nan nan 0 1285 254
-0.28695008 0.12501685 0.54680103 0.0011934015 1051 208
nan nan nan 0 507 100
-0.29891661 0.13280213 0.58114886 0.0016428047 634 125
-0.2960476 0.13283917 0.5816285 0.0029257999 318 63
-0.31082353 0.14087412 0.61726356 0.0047957846 133 26
-0.30526546 0.13976285 0.61295974 0.002906136 219 43
-0.29110098 0.13464788 0.59117824 0.0019453255 399 79
-0.28733069 0.13428439 0.59033394 0.0014061009 630 125
-0.27875933 0.1316459 0.57956642 0.0011772774 888 176
-0.27980405 0.13354091 0.58884251 0.0015933765 581 115
-0.28713745 0.13851009 0.61180836 0.0019434673 468 92
-0.27811563 0.13561197 0.60011619 0.0015178627 578 114
-0.27025485 0.13322274 0.59070033 0.0015479648 605 120
-0.26918852 0.13416699 0.59611201 0.001739693 564 111
-0.26744965 0.13479342 0.60017771 0.0017550763 468 92
nan nan nan 0 359 71
nan nan nan 0 365 72
-0.27196664 0.14183615 0.6358223 0.0034656283 218 43
nan nan nan 0 132 26
nan nan nan 0 295 58
-0.24200799 0.13075885 0.59028918 0.001225988 897 178
-0.23407626 0.12801045 0.57923537 0.00089086383 1457 254
nan nan nan 0 1008 200
nan nan nan 0 349 69
-0.23269849 0.13207269 0.60175437 0.0012121904 679 134
-0.22476959 0.12920226 0.58999485 0.0011488382 1024 203
-0.22108179 0.12872693 0.58911759 0.0013853691 769 152
-0.22307952 0.13159303 0.60353249 0.0023090923 357 70
nan nan nan 0 369 73
-0.21538013 0.13047226 0.6008867 0.00093939062 1147 227
nan nan nan 0 2006 254
nan nan nan 0 2485 254
nan nan nan 0 2741 254
nan nan nan 0 2775 254
nan nan nan 0 2754 254
nan nan nan 0 2687 254
nan nan nan 0 2450 254
nan nan nan 0 2383 254
nan nan nan 0 2603 254
nan nan nan 0 2738 254
nan nan nan 0 1961 254
-0.17530407 0.12665781 0.5952794 0.00093326165 1617 254
-0.17594084 0.12919237 0.60799915 0.001860648 537 106
-0.19721326 0.14721505 0.69370168 0.0047116466 162 32
-0.19369316 0.14702658 0.69366312 0.005155351 123 24
-0.18967369 0.14644608 0.69173694 0.0056362702 112 22
-0.18178651 0.14280695 0.67530787 0.0052831685 119 23
-0.17790458 0.14224082 0.67335671 0.0047815694 132 26
-0.17458521 0.14211211 0.6734426 0.0055298181 111 22
-0.17112797 0.1418644 0.67293304 0.0052886773 115 22
-0.16755059 0.14150591 0.67186612 0.0059248055 115 22
-0.16492353 0.14195164 0.67459017 0.0053680949 118 23
-0.16206297 0.14220986 0.67639881 0.0056644571 107 21
-0.15782532 0.14124593 0.67236519 0.0049580527 122 24
-0.15261984 0.13935915 0.6639021 0.0051083625 137 27
-0.14826243 0.13818462 0.65879655 0.0042169159 151 29
-0.14583528 0.13879751 0.66218698 0.0049107149 133 26
-0.14919661 0.14506508 0.69255447 0.0063187885 99 19
-0.14826946 0.14734769 0.70390123 0.0077474108 77 15
-0.14441955 0.14676319 0.70153427 0.0085460078 70 13
-0.1426785 0.14834431 0.70949984 0.0083042588 72 14
-0.13970093 0.1486842 0.7115128 0.009121336 65 12
-0.13664535 0.14895551 0.71317852 0.0085211452 65 12
-0.1328069 0.14836569 0.71070087 0.0087570818 72 14
-0.12856647 0.14728537 0.70585084 0.0085061723 71 14
-0.12522854 0.14720948 0.70579368 0.0081250044 68 13
-0.12252792 0.14789881 0.70938933 0.006387128 89 17
-0.11951599 0.14823999 0.71130008 0.0056505851 99 19
-0.11481565 0.14644699 0.70295197 0.0058798189 112 22
-0.11117842 0.14594491 0.70078117 0.0054010786 120 23
-0.10797293 0.14599642 0.70125318 0.0054963944 118 23
-0.10467479 0.14592196 0.70110607 0.0054341294 117 23
-0.099965721 0.14381295 0.69116759 0.005522179 109 21
-0.097464882 0.14484634 0.69631737 0.0055679753 111 22
-0.093316182 0.14341776 0.68961942 0.0056929793 108 21
-0.090208396 0.1435445 0.69038737 0.0054812725 107 21
-0.086683869 0.14299305 0.68788224 0.0055493163 109 21
-0.083113685 0.14232147 0.68478793 0.0054434985 109 21
-0.080037944 0.14247689 0.68566263 0.0061327727 101 20
-0.077164583 0.14302024 0.68839568 0.0059262984 99 19
-0.073829018 0.1427168 0.68704432 0.0060260468 106 21
-0.070855066 0.14311649 0.68906993 0.0058477176 111 22
-0.068323411 0.14448915 0.69577342 0.00536058 111 22
-0.065773457 0.14595659 0.70292771 0.0047944915 129 25
-0.062780336 0.14654185 0.70582765 0.0047767325 137 27
-0.059900876 0.14747094 0.71037787 0.00507444 126 25
-0.05687315 0.14812149 0.71358055 0.0061624539 107 21
-0.054538228 0.15076715 0.72639042 0.0065570623 96 19
-0.051249973 0.15095125 0.72733611 0.0070993854 87 17
-0.047889683 0.15093413 0.72730684 0.0061958269 96 19
-0.043957867 0.14897746 0.71792573 0.0059171384 108 21
-0.040660329 0.14902675 0.71820617 0.0049747843 123 24
-0.036877334 0.1471477 0.70918846 0.0047402503 130 25
-0.033497326 0.14666744 0.70690763 0.0047995723 126 25
-0.030128103 0.14613593 0.70437568 0.0049614459 128 25
-0.026772499 0.14555004 0.70157778 0.0052596643 114 22
-0.023482546 0.14520907 0.69995683 0.0069668652 84 16
-0.020176001 0.14464051 0.69723541 0.0090835476 62 12
-0.016753174 0.14286482 0.68869174 0.0095822336 59 11
-0.013415889 0.1411587 0.68048006 0.0085542258 66 13
-0.010132762 0.13915488 0.67083025 0.0068470747 81 16
-0.0069215233 0.13681148 0.65954041 0.0059195911 93 18
-0.0038764188 0.13665271 0.6587795 0.0064802701 99 19
-0.0008436268 0.1373495 0.66214067 0.0058993194 102 20
0.0022478795 0.1397713 0.67381513 0.0062534898 96 19
0.0054183123 0.14144333 0.68187243 0.0078974804 77 15
0.0092640836 0.15304425 0.73779213 0.0088859061 68 13
0.012488226 0.15090272 0.72745913 0.0096771112 59 11
0.014718943 0.14020504 0.67587751 0.0079571884 69 13
0.017785519 0.13981634 0.67398965 0.0058045262 110 21
0.020861328 0.13960506 0.6729542 0.0048381132 123 24
0.023928883 0.13940038 0.67194766 0.0046886513 130 25
0.027037788 0.13945591 0.67219222 0.0046362309 133 26
0.030156625 0.13954599 0.67259991 0.0045345305 135 26
0.033252768 0.13952404 0.67246395 0.0047292979 129 25
0.036049142 0.13835533 0.66679764 0.0047627185 131 25
0.039009489 0.1379502 0.66480762 0.0044820458 139 27
0.041848026 0.13720472 0.66117364 0.0043421583 142 28
0.044894904 0.13719718 0.66109157 0.0044555152 144 28
0.048382621 0.13845214 0.6670875 0.0044654123 139 27
0.051456757 0.13844426 0.6669935 0.0045192773 140 27
0.054321803 0.13790646 0.66434127 0.0046742335 144 28
0.057297084 0.13769102 0.66323656 0.0047647855 131 25
0.060657363 0.13837568 0.66646129 0.0057690614 109 21
0.06423302 0.13946192 0.67161268 0.0073975055 77 15
0.067439906 0.13968432 0.67259634 0.007294232 76 15
0.070052676 0.13871077 0.66781437 0.0064760591 94 18
0.072786137 0.13804817 0.66452307 0.005166403 115 22
0.075472452 0.13735339 0.66106987 0.0047507738 130 25
0.077980548 0.13640089 0.65636891 0.0042588459 144 28
0.08051382 0.13556206 0.65220767 0.0044588535 149 29
0.083310686 0.13521154 0.65038747 0.0038751715 163 32
0.085245691 0.13353534 0.64218295 0.0038919668 165 32
0.087041251 0.13176087 0.63349921 0.0040100794 157 31
0.090435594 0.13244329 0.63661891 0.0041926745 156 30
0.093771823 0.13300031 0.63912284 0.0046931524 131 25
0.096130796 0.13217953 0.63499457 0.0055739866 118 23
0.098767795 0.13177839 0.63287169 0.0054392936 111 22
0.10158979 0.13164006 0.63199908 0.0061329515 101 20
0.10507803 0.13234864 0.63517785 0.0065657659 86 17
0.1093584 0.13398917 0.64281124 0.0073287603 79 15
0.11310437 0.13490532 0.64695013 0.0083705354 75 14
0.11660944 0.13549423 0.64950097 0.0082789492 72 14
0.11884695 0.13461773 0.6450116 0.007532455 80 15
0.12188333 0.13466693 0.64494264 0.0079560028 81 16
0.12483108 0.13461821 0.64438725 0.0068410286 88 17
0.12765238 0.13443857 0.64318746 0.0071797678 86 17
0.12990394 0.13368087 0.63920569 0.0060727317 94 18
0.13228892 0.13309127 0.63601196 0.0056478442 101 20
nan nan nan 0 161 31
0.12834784 0.12359904 0.58989859 0.0025182564 282 55
0.12992626 0.12249734 0.58423835 0.0022813517 333 66
0.13206619 0.12195937 0.58125168 0.0023223241 353 70
nan nan nan 0 361 71
nan nan nan 0 392 77
nan nan nan 0 468 92
0.11466478 0.097856097 0.46485204 0.0017156862 522 103
0.11397865 0.095459975 0.45305252 0.0015776673 593 117
0.11618773 0.095531918 0.45295745 0.0016089478 611 121
0.11962337 0.096591704 0.45752111 0.0016035509 587 116
0.11887303 0.094293669 0.44616604 0.0016303097 607 120
0.12095843 0.094285659 0.44563764 0.0015827969 619 122
0.12080532 0.092562772 0.43699238 0.0014904352 640 127
0.12218285 0.092050716 0.43405485 0.0014713254 671 133
0.12333061 0.091385297 0.4303796 0.0014735076 684 135
0.12416925 0.09051609 0.42573231 0.0014857389 658 130
0.12561613 0.090110905 0.4232536 0.0014945805 699 138
0.12728342 0.089874089 0.42154789 0.0014428498 694 137
0.1288927 0.089604259 0.41966859 0.0014522091 716 142
0.13147362 0.090007812 0.42091957 0.0014768903 676 134
0.13173375 0.088834271 0.41477847 0.0014873331 654 129
0.13279416 0.088227086 0.41127238 0.0015667054 657 130
0.1350109 0.088394627 0.41135862 0.001595021 628 124
0.1376408 0.088824004 0.4126361 0.0015990691 608 120
0.14071937 0.089526676 0.41515136 0.0015587206 619 122
0.14498648 0.090955384 0.42099288 0.0016343247 594 117
0.14680691 0.090831004 0.41961241 0.0015269365 630 125
0.14627369 0.089273512 0.41160485 0.0015680429 649 128
0.14495939 0.087287404 0.40163332 0.0015025572 670 132
0.14368924 0.085379973 0.3920413 0.0014217041 707 140
0.14541905 0.085281588 0.39075744 0.0014532042 732 145
0.14468193 0.083757631 0.3829414 0.0013934228 741 147
0.14650947 0.083738223 0.38200521 0.0014082326 719 142
0.1479452 0.083498165 0.38005233 0.0014017987 723 143
0.14897992 0.08304055 0.3771061 0.0013784249 747 148
0.15058289 0.082906999 0.37562969 0.001376414 749 148
0.15200064 0.082675911 0.37371013 0.0014229388 717 142
0.1531962 0.08233095 0.37128001 0.0015009784 707 140
0.15260571 0.081045583 0.36462766 0.0014274179 708 140
0.15645818 0.082122259 0.36860976 0.0014923558 672 133
0.16035058 0.083194807 0.37256038 0.0015288333 653 129
0.15841943 0.08125592 0.36304802 0.0013876901 741 147
0.15714285 0.079692684 0.35526791 0.0012811491 835 165
0.15882038 0.079645745 0.35428622 0.0012934976 858 170
0.16235115 0.080518939 0.35741758 0.0013880968 790 156
0.16442354 0.080657721 0.35731265 0.0014549671 695 137
0.16608833 0.080595694 0.35635558 0.0014852319 655 129
0.16543265 0.079420984 0.35053152 0.0014763366 680 134
0.16354451 0.077685647 0.3423022 0.0014075545 719 142
0.16470544 0.07741978 0.34061241 0.0015072825 686 136
0.1715102 0.07978487 0.35053906 0.0015987495 579 114
nan nan nan 0 475 94
nan nan nan 0 379 75
0.19152582 0.086415663 0.37851116 0.0018938954 454 90
0.19133112 0.085470729 0.37412828 0.00187622 497 98
0.19564956 0.086540654 0.37863749 0.0019996632 462 91
0.19872916 0.087047115 0.38075235 0.0021816203 390 77
0.20137446 0.08735542 0.382074 0.0021663331 381 75
0.201153 0.086426109 0.37805614 0.0021936495 372 73
nan nan nan 0 348 69
-0.33197492 0.130198 0.56670845 0.0061258841 93 18
-0.32731456 0.12947427 0.56233931 0.0029587564 192 38
-0.32506764 0.12970091 0.5621714 0.0039110668 211 41
nan nan nan 0 162 32
-0.31506404 0.12792905 0.55243582 0.0019449912 424 84
nan nan nan 0 185 36
-0.31277302 0.12928136 0.55651373 0.0015982555 425 84
nan nan nan 0 626 124
-0.31505585 0.13260834 0.5693807 0.0043830634 155 30
-0.30766338 0.13069281 0.56057793 0.0015756293 428 84
-0.29803872 0.12778452 0.54763293 0.0021835531 525 104
-0.31427553 0.13601395 0.58250415 0.0026441463 216 42
-0.30889297 0.13495429 0.57767791 0.0015811521 542 107
-0.29542661 0.13030867 0.5576185 0.00096626283 1171 232
-0.28666705 0.12766927 0.54625762 0.0011672965 1022 202
nan nan nan 0 606 120
-0.29861984 0.13561888 0.58046633 0.0020997266 446 88
-0.29785937 0.1366225 0.58502936 0.0047420007 173 34
-0.29880166 0.13843526 0.59317571 0.0043512555 131 25
-0.30793604 0.14411892 0.61804467 0.0046275435 127 25
nan nan nan 0 225 44
nan nan nan 0 925 183
nan nan nan 0 2196 254
-0.27579218 0.13455153 0.5799461 0.0012168967 1121 222
-0.28701442 0.14152779 0.61102319 0.001448348 614 121
-0.27705175 0.13809565 0.59726828 0.0010630718 988 196
-0.2689853 0.13554384 0.58734506 0.0013853713 852 169
-0.26897964 0.13704237 0.59502727 0.0019955591 454 90
-0.26681861 0.13746406 0.59810555 0.0016265555 524 103
-0.26146811 0.13623346 0.59403354 0.0015961307 526 104
nan nan nan 0 696 138
nan nan nan 0 302 59
-0.25844863 0.13939755 0.61196882 0.0023724197 258 51
-0.24990278 0.1363876 0.60014522 0.0019451148 441 87
-0.24888723 0.13746446 0.60629404 0.0018532661 477 94
-0.24319635 0.13595386 0.60102922 0.0015401142 712 141
nan nan nan 0 490 97
nan nan nan 0 203 40
nan nan nan 0 531 105
-0.22485451 0.13212363 0.58945602 0.0010202299 1092 216
-0.22058865 0.13129435 0.58704942 0.0011122507 1209 239
-0.21818867 0.13156845 0.58954906 0.0016132249 667 132
-0.2209623 0.13501097 0.6062572 0.002457801 319 63
nan nan nan 0 482 95
-0.21259138 0.13344163 0.60166395 0.00092107552 1368 254
nan nan nan 0 1610 254
nan nan nan 0 2720 254
nan nan nan 0 2795 254
nan nan nan 0 2804 254
nan nan nan 0 2759 254
nan nan nan 0 2697 254
nan nan nan 0 2572 254
nan nan nan 0 2447 254
nan nan nan 0 2688 254
nan nan nan 0 2391 254
nan nan nan 0 754 149
-0.17503203 0.13138147 0.60426861 0.00089733378 1322 254
nan nan nan 0 621 123
nan nan nan 0 144 28
-0.18676208 0.14740282 0.68050069 0.0048739412 120 23
-0.18288875 0.14686593 0.67880172 0.0050040432 134 26
nan nan nan 0 117 23
-0.17520896 0.14578955 0.67528111 0.0043952665 128 25
-0.17021845 0.14424655 0.66880888 0.0050080069 130 25
-0.16720468 0.1443522 0.66994518 0.0053205178 122 24
-0.1660015 0.14605492 0.67847317 0.0066381088 99 19
-0.16311374 0.14631297 0.68027097 0.0070755822 90 17
-0.15791008 0.14446263 0.67223287 0.0055725914 105 20
-0.15298727 0.14279933 0.66502589 0.0046249735 130 25
-0.14789163 0.14090246 0.65669358 0.005133322 133 26
nan nan nan 0 116 23
-0.15538637 0.15444124 0.72081512 0.0076954137 85 16
-0.15212271 0.15453684 0.72173601 0.0081869345 73 14
-0.14786984 0.15360919 0.717852 0.0086516021 69 13
-0.14335974 0.15236527 0.71246147 0.0093000876 65 12
-0.13957357 0.15185012 0.71045214 0.0088274181 61 12
-0.13621825 0.1517901 0.71055001 0.0080906553 71 14
-0.13249183 0.15130328 0.70862865 0.0081720455 69 13
-0.12812011 0.15003602 0.70302904 0.0084092654 66 13
-0.12476054 0.14991881 0.70279664 0.0079063689 76 15
-0.1221756 0.1507511 0.70699936 0.0061605047 92 18
-0.11853264 0.15028781 0.70510978 0.0053126062 114 22
-0.11467067 0.14951271 0.70173889 0.0053201192 123 24
-0.1113005 0.1493523 0.70123583 0.0052081733 125 24
-0.10804179 0.14933631 0.70139569 0.00489661 123 24
-0.10437973 0.14874455 0.69883627 0.0052751172 120 23
-0.099822097 0.14679796 0.68989444 0.0052666375 114 22
-0.09609735 0.145988 0.68627799 0.0060268911 113 22
-0.093454204 0.14682204 0.69037753 0.0056501264 103 20
-0.090246394 0.14679655 0.69042486 0.0055929916 108 21
-0.086717509 0.14622778 0.68790549 0.0056556147 106 21
-0.083365083 0.14592457 0.68662393 0.0064122113 108 21
-0.079977751 0.14553387 0.68492019 0.0059024263 103 20
-0.076374888 0.14470267 0.68113285 0.0059722196 96 19
-0.07359761 0.14543137 0.68467909 0.0063694715 98 19
-0.070709422 0.14599653 0.68744797 0.0055942363 104 20
-0.068024151 0.14705347 0.69252563 0.0053976169 108 21
-0.065338545 0.14821388 0.69808429 0.004968266 121 24
-0.062449403 0.14900908 0.70191693 0.0050231349 135 26
-0.059348531 0.14935841 0.7036429 0.0048024128 131 25
-0.056632277 0.15077218 0.71037781 0.0057397364 115 22
-0.054139588 0.1529914 0.72090316 0.0064108809 98 19
-0.05097289 0.15347184 0.7232306 0.0067262612 97 19
-0.047459163 0.15290156 0.72060084 0.0056998478 100 19
-0.044109147 0.15281254 0.7202335 0.0052493084 113 22
-0.040219747 0.15068814 0.71026748 0.0055569066 122 24
-0.036771648 0.14998692 0.70700413 0.0052772281 134 26
-0.033443518 0.14968625 0.70562404 0.0046323119 136 26
-0.03016182 0.14955096 0.7050193 0.0047390256 131 25
-0.026789283 0.14887816 0.70187634 0.0053753271 122 24
-0.023502827 0.1485645 0.700423 0.0068214433 94 18
-0.020270091 0.14854462 0.70035076 0.010220714 61 12
-0.017014356 0.1483167 0.69929433 0.0096864169 60 11
-0.013424547 0.14438903 0.68079025 0.0087800091 63 12
-0.010089638 0.14164218 0.6678499 0.0067776376 82 16
-0.0069302437 0.14002828 0.66024822 0.0062583438 99 19
-0.0038646422 0.1392654 0.65665627 0.0057873144 104 20
-0.00083885639 0.13960813 0.65827435 0.0058153807 102 20
0.0022150159 0.14078882 0.66384107 0.0060505532 96 19
0.0053608194 0.14305268 0.67451185 0.0077080242 83 16
0.0092229545 0.15575108 0.73437929 0.0092550647 67 13
0.012480869 0.15416561 0.72689348 0.0094334111 63 12
nan nan nan 0 71 14
0.017751547 0.14265074 0.67257255 0.0053772242 105 20
0.020809364 0.14235227 0.67114651 0.0052311327 127 25
0.023866005 0.14212407 0.67004853 0.0048960657 131 25
0.026984164 0.14227256 0.67072284 0.0046930066 131 25
0.030107113 0.14241315 0.67135644 0.0049137059 132 26
0.033296525 0.14281261 0.67320609 0.0047306605 131 25
0.036461703 0.14304882 0.67428213 0.0047950521 130 25
0.039138664 0.14148307 0.6668604 0.0053248182 130 25
0.042015776 0.14081629 0.66367209 0.0050225626 126 25
0.044966992 0.14047158 0.6619972 0.0051053497 127 25
0.048265062 0.14118533 0.66530538 0.0052051893 130 25
0.051435109 0.14146163 0.66654629 0.0047091097 134 26
0.05440772 0.14119436 0.66522056 0.0045150155 137 27
0.057493098 0.14123267 0.66532844 0.0051076487 131 25
0.060756996 0.1416834 0.66737264 0.0060246321 99 19
0.064179368 0.14244236 0.67086112 0.0076726354 78 15
0.067270741 0.1424306 0.67071229 0.0074334163 80 15
0.069660001 0.14099877 0.66386944 0.0059576868 98 19
0.072552636 0.14066353 0.66218334 0.0053675072 116 23
0.075335369 0.14015101 0.6596548 0.0050392481 129 25
0.077822372 0.13914955 0.65481734 0.0042429781 143 28
0.079313956 0.13650976 0.64226454 0.0038701575 164 32
0.081609525 0.13539426 0.63687778 0.0036953418 176 34
0.083931483 0.13439873 0.63204736 0.0040074103 171 33
0.087060533 0.13471903 0.63339543 0.0042172652 153 30
0.090107612 0.13489583 0.6340574 0.0051499363 132 26
0.09342584 0.13545458 0.63650233 0.0050969943 123 24
0.096489362 0.13562118 0.63709146 0.0054455861 112 22
0.098885387 0.1348675 0.63334602 0.0059942938 98 19
0.10182449 0.13487662 0.63317066 0.0067745689 96 19
0.1054543 0.13577452 0.63715255 0.0079717133 81 16
0.10925218 0.13683401 0.64187485 0.007846944 77 15
0.11308794 0.13788353 0.64653134 0.0075920089 74 14
0.11587107 0.13762854 0.64505374 0.0078045297 70 13
0.11850042 0.13720834 0.64278668 0.0073263161 75 14
0.12150584 0.13723354 0.64259022 0.0071016024 84 16
0.1244254 0.13716285 0.64192718 0.0071130446 81 16
0.12667212 0.13637115 0.63787353 0.0067685395 91 18
0.12928315 0.13599885 0.63576567 0.0066397157 93 18
0.1290524 0.13272068 0.62006426 0.0042571174 129 25
0.12616214 0.12691061 0.59254086 0.0026448474 257 51
0.12765749 0.12566642 0.58633697 0.0025042586 332 65
0.12843001 0.12377775 0.57711619 0.002349108 341 67
nan nan nan 0 355 70
nan nan nan 0 399 79
0.11269126 0.10218555 0.47532701 0.0018639703 455 90
0.11186166 0.099472232 0.46230868 0.0017196275 520 103
0.11213212 0.097821496 0.45422789 0.0016430876 557 110
0.11206967 0.095947191 0.44510543 0.0015476354 629 124
0.11536524 0.096963793 0.44937873 0.001540816 623 123
0.11668272 0.096311189 0.44589493 0.0015125816 631 125
0.11802117 0.095698573 0.44258246 0.0014855037 673 133
0.11931953 0.095075242 0.43920633 0.0014890812 658 130
0.11952026 0.093613446 0.4319475 0.0014606389 678 134
0.11977038 0.092238612 0.42508474 0.0014617327 685 135
0.12122938 0.091824755 0.42263985 0.0014705866 729 144
0.12301362 0.091666646 0.42135438 0.001399369 747 148
0.12498636 0.09165179 0.42070696 0.0014289323 742 147
0.12705955 0.091709927 0.42037243 0.0014220522 718 142
0.12885173 0.091566578 0.41909292 0.0014376647 711 141
0.12937836 0.090541914 0.41376555 0.0014229733 716 142
0.12838194 0.088498086 0.40378067 0.0013799745 756 150
0.12990868 0.088228226 0.40188482 0.0013713421 744 147
0.13011813 0.087084584 0.39599803 0.0013966786 722 143
0.13120884 0.086555101 0.39289591 0.0014277934 707 140
0.13517664 0.087911688 0.39832717 0.0015350814 672 133
0.13709973 0.087919235 0.39761353 0.0014897962 685 135
0.13853593 0.087618634 0.39548826 0.0014461091 698 138
nan nan nan 0 735 145
0.13965718 0.085963652 0.38645786 0.0013586007 784 155
0.13919273 0.08454632 0.3792921 0.0013718574 776 153
0.14055622 0.084261745 0.37720791 0.0013188258 812 161
0.14346144 0.084896863 0.37922251 0.0013518455 770 152
0.14497291 0.084701538 0.3775101 0.001342507 767 152
0.14359382 0.08284346 0.36839622 0.0013433412 797 158
0.14475468 0.082478642 0.36593625 0.0013127156 826 163
0.14620855 0.082287662 0.36424696 0.0013010098 822 163
0.146836 0.081641793 0.36054924 0.0013235325 804 159
0.1481736 0.08140149 0.35865149 0.0013558428 780 154
0.14961495 0.081223182 0.35703439 0.0014162436 755 149
0.15398772 0.082621887 0.36234418 0.0014344282 699 138
0.15553388 0.082489215 0.36093625 0.0014463445 693 137
0.15676787 0.082195878 0.35884544 0.0013985758 758 150
0.15639015 0.081073634 0.3531698 0.001289152 830 164
0.15854459 0.08127448 0.35329133 0.0012674909 862 171
0.16113769 0.081693262 0.35438451 0.0013527935 814 161
0.16385727 0.082166351 0.35574034 0.0013878773 747 148
0.16245727 0.080585755 0.34825328 0.0013706381 740 146
0.16208234 0.079541937 0.34315011 0.0013383775 763 151
0.16174406 0.078537948 0.33828095 0.0013636984 790 156
0.16374572 0.078679278 0.33840191 0.0014098715 756 150
0.16634387 0.079101324 0.33978155 0.0015021483 664 131
0.16841371 0.079266086 0.34011078 0.0016898299 575 114
nan nan nan 0 475 94
0.18965876 0.087475099 0.37470126 0.002051129 399 79
0.19316511 0.088207781 0.37762713 0.0020381962 416 82
0.19493999 0.08814317 0.37721053 0.0019456238 423 83
0.19701865 0.088215828 0.37745431 0.0019705864 428 84
0.19224004 0.085246332 0.36475408 0.0020470079 417 82
0.19545877 0.085845992 0.36739582 0.0020732987 404 80
-0.32946092 0.13090508 0.55944854 0.0020832366 443 87
-0.33097586 0.13262835 0.56550503 0.0030434681 239 47
-0.32950887 0.1331761 0.56659096 0.0028911841 219 43
-0.32363141 0.13193528 0.56014097 0.0033798774 245 48
nan nan nan 0 102 20
nan nan nan 0 424 84
nan nan nan 0 250 49
-0.31289947 0.13214554 0.5570789 0.0022754371 280 55
nan nan nan 0 435 86
-0.31480864 0.13538514 0.56921178 0.0019353481 396 78
-0.30756083 0.13348976 0.5606271 0.0016418954 483 95
-0.2975156 0.13033357 0.54686314 0.0021326274 486 96
nan nan nan 0 192 38
-0.29754561 0.13282299 0.55656618 0.0015305716 689 136
-0.30094534 0.13562894 0.56810045 0.002735398 322 63
-0.29813182 0.13566193 0.56812173 0.0010608713 633 125
-0.28418684 0.1305808 0.54683453 0.00087197323 1827 254
-0.28583398 0.13263446 0.55553222 0.0018897653 594 117
-0.29865074 0.13996375 0.58644563 0.0026881457 254 50
-0.29359618 0.13898091 0.58265179 0.0022155235 280 55
