# .PCD v0.7 - Point Cloud Data file format
VERSION 0.7
FIELDS x y z noise intensity gray
SIZE 4 4 4 4 2 1
TYPE F F F F U U
COUNT 1 1 1 1 1 1
WIDTH 916
HEIGHT 1
VIEWPOINT 0 0 0 1 0 0 0
POINTS 916
DATA ascii
-0.1572322 0.11052642 0.48087379 0.0011357721 1000 221
-0.15525705 0.11076022 0.48272386 0.0011415159 989 219
-0.15341693 0.11109885 0.48500958 0.0011886898 953 211
-0.15137047 0.11129615 0.48665652 0.0011671173 990 219
-0.14966258 0.1117524 0.48941469 0.0012115547 903 200
-0.1493703 0.11329681 0.49692604 0.0013220694 790 175
-0.14924148 0.11501679 0.50520289 0.001372742 750 166
-0.14689009 0.11505206 0.50606501 0.0013833903 738 163
-0.14439484 0.11497398 0.50640285 0.0013842287 731 162
-0.14203127 0.11499987 0.50717312 0.0013257081 759 168
-0.1395278 0.11491142 0.5074141 0.0012916405 820 181
-0.13678202 0.11461688 0.50671858 0.0012697856 843 186
-0.13456097 0.11475934 0.5079307 0.0012210784 883 195
-0.13253988 0.11508058 0.50991309 0.0012576891 836 185
-0.12952545 0.1145353 0.50803238 0.0012306935 886 196
-0.12724426 0.11463008 0.50896627 0.0013052659 861 190
-0.12463741 0.1144295 0.50856692 0.0013300967 772 171
-0.12152357 0.11374655 0.50599903 0.0013040669 793 175
-0.1190618 0.11365892 0.50605601 0.001369075 751 166
-0.11697346 0.11393145 0.50769758 0.0013819439 748 165
-0.11677631 0.11609544 0.51775748 0.0014728844 667 147
-0.11293913 0.11465561 0.511729 0.0014353647 721 159
-0.11287341 0.11706509 0.52286541 0.0014895669 690 153
nan nan nan 0 547 121
-0.13542107 0.1467943 0.65654218 0.002901586 310 68
-0.13409464 0.14871527 0.66555363 0.0023227762 301 66
nan nan nan 0 422 93
nan nan nan 0 535 118
-0.10209586 0.12166139 0.54540926 0.0012985863 806 178
-0.10007189 0.12228572 0.54848891 0.0013862186 767 170
-0.099366903 0.12459655 0.55912489 0.0015123597 669 148
-0.10020464 0.12901768 0.57923049 0.0017135189 544 120
-0.097369365 0.12882304 0.57860774 0.0016397412 548 121
-0.093737498 0.12753356 0.5730511 0.0015802894 639 141
-0.091124415 0.12759539 0.573551 0.0015620319 651 144
-0.090572879 0.13063429 0.58742565 0.0017439303 542 120
nan nan nan 0 422 93
-0.091818795 0.14089976 0.63400978 0.0023820566 339 75
-0.088045806 0.13957249 0.62822878 0.0017603912 477 105
-0.085160665 0.13961008 0.62857771 0.0018966632 519 115
-0.082713462 0.1403937 0.6322754 0.0020150379 469 103
-0.080603249 0.14182769 0.63889426 0.0021155875 370 82
-0.077549398 0.14164723 0.63823152 0.0020525125 393 87
-0.073189013 0.13897164 0.62631375 0.0021691145 408 90
-0.067666069 0.13377723 0.60302752 0.0016712263 505 111
-0.064832725 0.13368234 0.60271525 0.0016960343 585 129
-0.068525687 0.14763999 0.66576296 0.0020637184 419 92
-0.066131331 0.149178 0.67280984 0.0022509622 398 88
-0.061895356 0.14650853 0.66087186 0.0017340627 505 111
-0.058525849 0.14571945 0.65740627 0.0016638398 548 121
-0.05526261 0.14512308 0.65480202 0.0016079058 569 126
-0.052247856 0.14514801 0.65499407 0.0016367679 576 127
-0.049224321 0.14515007 0.65507668 0.0017628132 560 124
-0.046023253 0.14459462 0.65263689 0.0015855044 597 132
-0.043252345 0.14540756 0.65636772 0.0016546719 569 126
-0.040777382 0.14741275 0.66547602 0.0018501047 524 116
-0.037843317 0.14794978 0.66795224 0.0018895156 494 109
-0.03566448 0.15179645 0.68536705 0.0019171189 458 101
-0.032814719 0.15325831 0.69201094 0.0019917418 427 94
-0.029566957 0.15297614 0.69077551 0.0019817047 461 102
-0.026225602 0.15208301 0.6867767 0.0019965703 487 107
-0.022989906 0.15164134 0.68481183 0.0018638048 478 105
-0.019841094 0.15172328 0.68520749 0.0019453201 442 98
-0.016661227 0.15155382 0.68446368 0.0020660444 437 96
-0.013404424 0.15044168 0.67945826 0.0021531258 430 95
-0.010186218 0.14921598 0.67393619 0.0020097718 431 95
-0.0070208404 0.14802729 0.66857702 0.0019494443 433 96
nan nan nan 0 495 109
-0.00078629027 0.1365499 0.6167469 0.0015328866 628 139
0.002063774 0.13687965 0.61823553 0.0015705368 616 136
0.0050326516 0.14013515 0.63293535 0.0018338637 479 106
0.0080599524 0.1420296 0.64148432 0.0018327117 461 102
0.0110353 0.1422369 0.64240962 0.0017403282 506 112
0.013993985 0.14218712 0.64217019 0.0017773961 515 114
0.016925819 0.14192958 0.64098895 0.0016832172 532 117
0.019761452 0.14106195 0.6370489 0.001748419 518 114
0.022068476 0.13713418 0.619286 0.0017141732 522 115
0.024557518 0.13510832 0.61010927 0.0017349521 522 115
0.027299127 0.13474578 0.60844022 0.0017249582 525 116
0.029696325 0.13290942 0.6001128 0.0017619778 556 123
0.031911306 0.13064034 0.58982837 0.0015925405 580 128
0.033942409 0.12803437 0.57802016 0.0015418709 641 142
0.03628685 0.12690395 0.57287031 0.001565843 674 149
0.038585655 0.12577835 0.56773847 0.0013800935 740 164
0.041112911 0.12549323 0.56639618 0.0014595372 774 171
0.043412093 0.12458768 0.56224912 0.0013199762 790 175
0.045890555 0.12426979 0.56074941 0.0013756439 813 180
0.048355676 0.12395165 0.55924338 0.0013845059 813 180
0.050677937 0.12331815 0.55630916 0.0012834283 835 185
0.053204093 0.12321799 0.5557754 0.0012998723 811 179
0.055740289 0.12314923 0.55537689 0.0013107504 802 177
0.05859125 0.12375136 0.55799663 0.0013100799 795 176
0.061195906 0.12380441 0.55813313 0.0013116245 800 177
0.063681193 0.12362146 0.55719811 0.0013270756 783 173
0.066299178 0.12370033 0.55743551 0.0012880048 835 185
0.068617851 0.12323571 0.55521578 0.0013296769 838 185
0.071078412 0.12305026 0.55424589 0.0012514094 860 190
0.073607892 0.12299289 0.55384403 0.0013162488 851 188
0.076291405 0.12318806 0.55456978 0.0012829698 844 187
0.079167679 0.1236717 0.55658329 0.0012933707 818 181
0.081969477 0.12401214 0.55794078 0.0013129589 813 180
0.085475408 0.12536453 0.56383759 0.0013705768 758 168
0.087806687 0.12496495 0.56184191 0.001344765 760 168
0.089878038 0.12422912 0.55832422 0.0013415428 766 169
0.090594307 0.12171391 0.54680276 0.0013114429 826 183
0.09086521 0.11875363 0.53327918 0.0012493207 915 202
0.091979668 0.11702356 0.52527612 0.0011995984 1004 222
0.094189659 0.11674064 0.52375972 0.0011904648 1012 224
0.096523874 0.11662208 0.5229677 0.0011721875 1041 230
0.098973736 0.11664562 0.52279896 0.0011217091 1033 229
0.10135707 0.11659151 0.52226752 0.0011221889 1023 226
0.10371909 0.11651598 0.52162516 0.0011654088 1014 224
0.10600452 0.11635984 0.52060664 0.0011346835 1009 223
0.10775297 0.11563443 0.51702732 0.0011120631 1045 231
0.10961893 0.1150641 0.51412833 0.0011163629 1069 237
0.11166747 0.1147057 0.51216191 0.0010862675 1099 243
0.11374877 0.11439529 0.51039404 0.001064455 1123 249
0.11645039 0.11470868 0.51139092 0.0010545733 1150 255
0.11901022 0.11487258 0.51170075 0.0010778549 1181 255
0.12133456 0.11480721 0.51096934 0.0010181905 1203 255
0.12318254 0.11430234 0.50826395 0.00099579745 1269 255
0.12534659 0.11410435 0.50690532 0.00098701543 1277 255
0.12765443 0.11404218 0.50613016 0.00098005997 1288 255
0.13013476 0.11413355 0.50601453 0.0010177055 1314 255
0.13244247 0.11407299 0.50520289 0.00096447166 1355 255
0.13472085 0.11398974 0.50426865 0.0009697323 1335 255
0.13709369 0.11398792 0.50367177 0.0009917611 1281 255
0.13976081 0.11422665 0.50411278 0.0010878909 1118 247
0.14399906 0.11571999 0.51005667 0.0012727594 908 201
0.14395806 0.11378191 0.50085384 0.0012617001 877 194
0.14428605 0.11219354 0.49318618 0.0012379453 879 194
0.14380977 0.1100404 0.4830339 0.0012094139 978 216
0.14421129 0.10861598 0.47607812 0.001066159 1107 245
0.14291477 0.1059764 0.46379831 0.00098775106 1297 255
0.1437342 0.10496236 0.4586328 0.0010001499 1384 255
0.1463256 0.10525327 0.45915011 0.0011281797 1144 253
0.15625882 0.11073866 0.48226067 0.0013291131 851 188
0.15882999 0.11092293 0.48221764 0.0014781508 790 175
nan nan nan 0 559 123
0.17821045 0.1209382 0.52383173 0.0020246562 401 88
0.18068235 0.12090614 0.52269047 0.0019269421 427 94
0.18303332 0.12079517 0.52118373 0.0019276835 473 104
0.18628238 0.12127186 0.52218467 0.0018720438 462 102
nan nan nan 0 363 80
nan nan nan 0 245 54
nan nan nan 0 337 74
nan nan nan 0 565 125
0.14891273 0.090786584 0.38673216 0.0019425442 543 120
0.15409993 0.092770591 0.39429262 0.0026436793 295 65
0.15467021 0.091960415 0.38995954 0.003069869 282 62
0.15425949 0.090593956 0.38328531 0.0029242644 264 58
0.152751 0.088623613 0.3740885 0.0028064495 255 56
0.15339601 0.087934844 0.37033063 0.0031189567 256 56
0.15449601 0.087520078 0.36774462 0.0033603054 247 54
0.15519834 0.086892329 0.36428505 0.0029227559 248 54
0.1590053 0.087997258 0.36810082 0.0032750706 236 52
0.16251895 0.088916495 0.37114176 0.0030822447 235 52
0.17652602 0.095491432 0.39774945 0.0036570993 227 50
0.17938972 0.095958985 0.39888957 0.003380334 205 45
0.18140768 0.09596882 0.39816123 0.0034586065 211 46
0.17487971 0.091506757 0.37895697 0.0034820738 202 44
0.17563617 0.090911433 0.37585056 0.0034545821 196 43
0.17198355 0.088070974 0.36353567 0.0038963477 204 45
0.17005964 0.086166382 0.35516688 0.0034767876 197 43
0.1663066 0.083384492 0.34326369 0.0036285724 203 45
0.16301595 0.080889553 0.33262494 0.0033374226 215 47
0.15750991 0.07735765 0.31780493 0.0028180063 265 58
0.14739904 0.071658626 0.29417032 0.0022416697 335 74
0.14857318 0.071505144 0.2933735 0.002203454 379 84
0.1495351 0.071253598 0.29223028 0.0023319819 335 74
0.15036288 0.070943691 0.29090375 0.0026025586 322 71
0.15178035 0.070915341 0.29078719 0.0027452793 307 68
0.15328211 0.070926532 0.29088753 0.0026974985 262 58
0.1595681 0.073130131 0.300037 0.0032407874 231 51
-0.15761113 0.065288946 0.26815578 0.0029252386 226 50
-0.16095074 0.067240857 0.27551696 0.0028838683 238 52
-0.160652 0.067693256 0.27674007 0.0029474807 266 58
-0.15956317 0.06781771 0.27664846 0.0025438545 290 64
-0.15899558 0.068167821 0.27750617 0.0026781943 266 58
-0.15794878 0.068316847 0.27757573 0.0028334002 266 58
-0.15765186 0.068795733 0.27901727 0.0030489601 250 55
nan nan nan 0 187 41
-0.18210983 0.080909908 0.3270998 0.0060559926 83 18
-0.17754301 0.079602756 0.32137021 0.0054629315 121 26
-0.17702533 0.080103695 0.32299495 0.004786713 138 30
-0.17972392 0.082082883 0.33062139 0.0048826835 136 30
-0.18183146 0.083826832 0.33734068 0.0054543605 133 29
-0.18992451 0.088389538 0.35544169 0.0048462478 132 29
-0.1966119 0.092379309 0.3712793 0.0061200736 133 29
-0.20204987 0.095853582 0.38509825 0.0050816988 129 28
-0.20236047 0.096939586 0.38938701 0.005011694 126 27
-0.19830158 0.095933184 0.38534293 0.0057805534 118 26
-0.19776675 0.096628562 0.38820738 0.005821676 113 25
-0.19917323 0.098296002 0.39505315 0.0052823368 118 26
-0.20299646 0.10120224 0.40696016 0.0056499946 114 25
-0.20258887 0.10203732 0.41062215 0.0063780537 118 26
-0.20138665 0.10248534 0.41280413 0.0056103561 131 29
-0.19494364 0.10024776 0.40423173 0.0050399732 126 27
-0.19388601 0.10076145 0.406813 0.0049336483 135 29
-0.19453709 0.10218368 0.41313669 0.0047763414 135 29
-0.19518672 0.10363599 0.41965944 0.0047317771 141 31
-0.19535692 0.10486275 0.42534274 0.0049264631 132 29
-0.19518709 0.10593215 0.4304561 0.0048639718 122 27
-0.16779883 0.092088029 0.3749156 0.0020252049 257 56
-0.16470169 0.091412239 0.37290993 0.0017722209 588 130
nan nan nan 0 263 58
-0.31024614 0.17618354 0.72177148 0.0041355998 170 37
-0.30674383 0.17623731 0.72357911 0.0046250974 179 39
-0.30338585 0.17637633 0.72576988 0.0048244512 148 32
-0.30260277 0.17803358 0.73424757 0.0039093699 162 35
-0.29903045 0.17807016 0.73607236 0.0026697433 294 65
-0.29469079 0.17764501 0.73599237 0.0025323774 278 61
-0.2941592 0.17953351 0.74551213 0.0024707308 323 71
-0.28833693 0.17819984 0.74165154 0.0028243368 260 57
nan nan nan 0 269 59
nan nan nan 0 440 97
-0.17741178 0.11395758 0.47744346 0.0014698236 719 159
-0.17363578 0.11301377 0.47450671 0.0012867735 851 188
-0.17252782 0.11380444 0.47883347 0.0013339808 805 178
-0.17338574 0.11593118 0.48878765 0.0014030598 753 166
-0.17419969 0.11808693 0.49887946 0.0014502499 690 153
-0.16793828 0.11543961 0.48865315 0.0013245473 746 165
-0.16273925 0.11345766 0.48118183 0.0011995664 901 199
-0.16031212 0.11337885 0.48174134 0.0011677885 920 204
-0.15722404 0.11282344 0.48024634 0.0011530919 966 214
-0.15506332 0.11292689 0.48152763 0.0011410796 1001 221
-0.15294901 0.11306775 0.48294526 0.00118326 994 220
-0.15073174 0.11313567 0.48402762 0.0012217514 979 217
-0.1494478 0.1139171 0.48814312 0.0012787983 880 195
-0.1486989 0.11513755 0.49412769 0.0012945448 819 181
-0.1466191 0.11535011 0.49577072 0.0013708528 829 183
-0.14669922 0.11729664 0.50485432 0.001396209 754 167
-0.14451537 0.11746751 0.50628263 0.0013740725 721 159
-0.14215791 0.11750066 0.50709355 0.0013916725 783 173
-0.1398086 0.11754176 0.50791466 0.0012881529 805 178
-0.13631527 0.11660571 0.50448418 0.0012439534 866 192
-0.1339559 0.11662363 0.5051524 0.0012145161 914 202
-0.13199846 0.11699846 0.50734544 0.0012523362 843 186
-0.13016209 0.11749639 0.51005375 0.0012537858 834 184
-0.12738453 0.11714745 0.50906426 0.0012561692 858 190
-0.12528801 0.11742347 0.51076835 0.0013896275 777 172
-0.12211807 0.11668457 0.50803483 0.0014520535 730 161
-0.11938016 0.11633731 0.50698161 0.0013931599 728 161
-0.11663009 0.11596388 0.50579154 0.0014322335 760 168
-0.11558843 0.11730879 0.51208049 0.0013878763 738 163
-0.11338119 0.11750266 0.51333153 0.0014460894 677 150
-0.11036312 0.11684644 0.51084894 0.0014081516 740 164
-0.1107218 0.11981531 0.52420467 0.0015433383 671 148
nan nan nan 0 471 104
nan nan nan 0 275 60
nan nan nan 0 315 69
nan nan nan 0 436 96
-0.10507564 0.12782109 0.56096619 0.0015454605 582 129
-0.10095611 0.12593664 0.55298889 0.0014333603 673 149
-0.099095412 0.12684508 0.55725777 0.0015089778 655 145
-0.098805435 0.12986676 0.57080448 0.0016379306 593 131
-0.098271154 0.13272509 0.5836308 0.0016920414 508 112
-0.094348609 0.13103957 0.57646483 0.001599867 598 132
-0.091578223 0.13090257 0.57609427 0.0015764467 607 134
-0.091186315 0.13425934 0.59109211 0.0018273417 477 105
-0.091709092 0.13921259 0.61311942 0.0021884758 386 85
-0.091356844 0.14311182 0.63050592 0.0020600234 361 80
-0.087817408 0.14211096 0.62629592 0.0017378805 498 110
-0.085017629 0.14227957 0.62722695 0.0018059799 534 118
-0.082359478 0.14270552 0.62928194 0.0019540822 458 101
-0.080805093 0.1451453 0.64020979 0.002436108 351 77
-0.07788448 0.14522332 0.64071268 0.0021626449 366 81
-0.074610092 0.14462179 0.6382069 0.0021501973 359 79
nan nan nan 0 398 88
nan nan nan 0 567 125
nan nan nan 0 453 100
-0.066010699 0.15200841 0.67133045 0.002128233 382 84
-0.062923431 0.15204532 0.67160338 0.0021907145 400 88
-0.058681343 0.14915082 0.65891808 0.0019286874 492 109
-0.055020534 0.14749786 0.65170723 0.0016409011 557 123
-0.052070603 0.14766955 0.65255076 0.0016116722 580 128
-0.049123902 0.14787206 0.65352392 0.001749186 573 127
-0.046061367 0.14772961 0.65296626 0.0015788305 592 131
-0.043059595 0.14777569 0.65323597 0.0016420196 620 137
-0.040120672 0.14806068 0.65455616 0.0016587315 574 127
-0.037676249 0.15036564 0.66480172 0.0018599489 516 114
-0.034635447 0.15048817 0.66539395 0.0018175357 489 108
-0.032206621 0.15355231 0.67898858 0.0019005543 462 102
-0.029269723 0.15459359 0.68363458 0.0019058193 445 98
-0.02624535 0.15536866 0.68709898 0.0018594004 453 100
-0.023011578 0.15494677 0.6852656 0.0019362039 441 97
-0.019702369 0.15380161 0.68022847 0.0019255902 443 98
-0.016329141 0.1516279 0.67063767 0.0018979344 457 101
-0.013195188 0.15117896 0.66867077 0.0020595652 438 97
-0.0099804439 0.14924785 0.66014385 0.0019480408 445 98
nan nan nan 0 553 122
-0.0036133903 0.13870433 0.61352456 0.001612456 626 138
-0.00078608823 0.13935919 0.61642385 0.001677343 545 120
0.0021396205 0.14486694 0.6407854 0.0020479714 419 92
0.0051051006 0.14511433 0.64187515 0.0019030769 435 96
0.0080782166 0.14531742 0.64276522 0.0018523623 490 108
0.011016972 0.14495935 0.64116937 0.0018104326 528 117
0.013958186 0.14477834 0.6403529 0.0017506694 531 117
0.016880685 0.14450042 0.63910401 0.0017160341 525 116
0.019786222 0.14418155 0.6376701 0.0017552193 507 112
0.022261871 0.14121825 0.62453723 0.0017989067 493 109
0.024502965 0.13761696 0.60858017 0.0017879752 532 117
0.026940681 0.13574718 0.60027719 0.0017586381 559 123
0.029045211 0.13270381 0.58678186 0.0015507253 612 135
0.031135531 0.13012023 0.57531667 0.001512225 667 147
0.033715721 0.12982912 0.57398403 0.0014826283 670 148
0.036326405 0.12968931 0.57331574 0.0015672095 674 149
0.038567618 0.12833899 0.5672918 0.0014191456 703 155
0.041129842 0.12816072 0.56644434 0.0013807332 731 162
0.043344121 0.1269844 0.56118113 0.0013243237 780 172
0.045793522 0.12659079 0.55937201 0.0013049912 802 177
0.048179321 0.12607278 0.55700803 0.001282161 822 182
0.050511621 0.12547441 0.55428368 0.001310682 840 186
0.053029191 0.12537181 0.55374342 0.0012502077 870 192
0.055637375 0.12548301 0.55414075 0.0013257766 857 190
0.058185324 0.12545456 0.55391449 0.0013412664 837 185
0.060931515 0.12583792 0.55549866 0.0012776495 842 186
0.063582554 0.12600172 0.55610538 0.0012764861 827 183
0.065949753 0.12561215 0.5542621 0.0013253337 865 191
0.068379976 0.1253673 0.55304945 0.0012683804 851 188
0.070784807 0.12509522 0.5517084 0.0012482606 878 194
0.073349811 0.12511531 0.55164689 0.0012962646 864 191
0.075826615 0.12498864 0.55092883 0.0013188078 856 189
0.07835833 0.1249578 0.55062324 0.0012906654 862 191
0.081777669 0.12629977 0.55635434 0.001430544 784 173
0.084724061 0.12685163 0.55859119 0.0013736564 749 166
0.087392472 0.12696688 0.55889267 0.001400065 740 164
0.089514792 0.12630497 0.55576187 0.0013544409 757 167
0.090147972 0.12363777 0.54380083 0.0012606934 834 184
0.090589844 0.12086055 0.53135353 0.0011981906 914 202
0.092063941 0.11957127 0.52544242 0.001152821 963 213
0.09393131 0.11884613 0.52200109 0.001119319 1033 229
0.096350007 0.11883752 0.52169478 0.0011639325 1038 230
0.09882284 0.11889446 0.52166158 0.0011210635 1041 230
0.10117976 0.11881255 0.52100432 0.001157929 1011 224
0.10354445 0.11874338 0.52038789 0.0011141817 1052 233
0.10581216 0.11856871 0.51929379 0.0011309462 1018 225
0.10740142 0.11765861 0.51496536 0.0011273286 1066 236
0.10956757 0.11740648 0.51350307 0.0011437817 1100 243
0.11157461 0.1169983 0.51134306 0.0010515176 1158 255
0.11389609 0.11693003 0.51065212 0.0010742078 1163 255
0.11622248 0.11686951 0.50997686 0.0010532029 1186 255
0.11858389 0.11684594 0.50944412 0.0010640459 1190 255
0.12112431 0.1169962 0.50964904 0.0010231207 1201 255
0.12310692 0.11661226 0.5075078 0.0009797758 1289 255
0.12523755 0.11638045 0.50601035 0.00096830644 1348 255
0.12769774 0.11645781 0.50583655 0.00098356279 1332 255
0.13007611 0.11645909 0.50531012 0.0010017626 1316 255
0.13237439 0.11638992 0.50445598 0.00096140761 1348 255
0.13474637 0.11638684 0.5038659 0.00098717108 1328 255
0.13722259 0.11647233 0.50363547 0.0010247045 1228 255
0.14044136 0.11717444 0.50604337 0.001154382 1056 234
0.14369847 0.11788449 0.50845343 0.0012406032 882 195
0.1421092 0.11466086 0.49388662 0.001242326 896 198
0.14189836 0.11263586 0.48448887 0.001264565 902 200
0.14220192 0.11107722 0.47709429 0.0010899674 1075 238
0.14252238 0.10958051 0.46996057 0.0010284621 1174 255
0.14286461 0.10814652 0.46309078 0.00097421452 1295 255
0.14377514 0.10717982 0.45821401 0.0010042806 1379 255
0.14588305 0.10712133 0.45720312 0.0010376661 1296 255
0.15350853 0.11105626 0.47318432 0.0012515392 974 215
0.1575903 0.11235029 0.47785014 0.0012268624 959 212
0.161296 0.11334292 0.48119202 0.001302649 873 193
nan nan nan 0 595 131
0.17747711 0.12123579 0.51274145 0.0017282007 506 112
0.18012102 0.12134995 0.51220667 0.00170382 528 117
0.1874478 0.12457313 0.52474302 0.0021211279 443 98
nan nan nan 0 264 58
nan nan nan 0 274 60
nan nan nan 0 726 160
0.1465179 0.092360936 0.38573524 0.0011972887 989 219
0.14978449 0.093220726 0.38845888 0.0020907337 462 102
0.15329401 0.094208233 0.39169002 0.0026647467 283 62
0.15415275 0.093562394 0.38812241 0.0028156862 255 56
0.15387207 0.092249267 0.38180354 0.0028640011 253 56
0.15385297 0.091122806 0.37628222 0.0032268569 236 52
0.15290259 0.089478262 0.36865309 0.0029508956 245 54
0.15312716 0.088552013 0.36401668 0.0033564963 246 54
0.15513152 0.088664599 0.36367157 0.0029870621 244 54
0.15748118 0.08896967 0.36413017 0.0029743211 247 54
0.16169643 0.090309739 0.36883301 0.0036126482 239 52
0.16633922 0.091855697 0.37437975 0.0030825166 241 53
0.17915781 0.097831711 0.39795479 0.0032880574 215 47
0.18132637 0.097924486 0.39759055 0.0033846726 213 47
0.17642629 0.094239473 0.38195902 0.0037485685 199 44
0.17499439 0.092466503 0.3741639 0.0033955248 196 43
0.17491804 0.091440015 0.36945948 0.0036004428 193 42
0.16716984 0.086466998 0.34889811 0.0036713141 209 46
0.16565554 0.084788613 0.34172165 0.0033159743 205 45
0.15949567 0.080791764 0.32528311 0.0033180777 208 46
0.15024175 0.075325459 0.30302018 0.0024583717 310 68
0.14765014 0.073276289 0.29458255 0.0021075075 385 85
0.14785548 0.072642393 0.2918956 0.0024794058 348 77
0.14898685 0.072471514 0.29112527 0.0023676236 319 70
0.15075362 0.072610036 0.29165262 0.0024090314 332 73
0.15159118 0.072302669 0.29044354 0.0025098845 311 68
0.15429981 0.072885044 0.2928631 0.0033052389 246 54
0.15541029 0.072708614 0.29228753 0.0034889679 223 49
-0.15861975 0.067047849 0.27014765 0.0031905053 211 46
-0.15867198 0.067641832 0.2718851 0.0029845235 224 49
-0.15980662 0.068711422 0.2755467 0.0027052457 263 58
-0.15908015 0.068992406 0.27606362 0.0027556426 252 55
-0.1585234 0.069352567 0.27692378 0.0029072668 230 51
-0.15766603 0.069586411 0.27730826 0.0027587996 267 59
-0.15668552 0.069769576 0.27752292 0.0027660106 255 56
-0.15945436 0.071640573 0.2844741 0.0033895643 242 53
-0.18547668 0.0840877 0.33336985 0.0063099544 115 25
-0.18152656 0.083049983 0.32878026 0.005497084 104 23
-0.17715205 0.081797138 0.32340124 0.00465257 134 29
-0.18314455 0.085352361 0.33707327 0.0049988031 125 27
-0.18483748 0.086951882 0.34305456 0.0048288004 131 29
-0.19295695 0.091633677 0.3612332 0.0053946287 129 28
-0.19709314 0.094495527 0.37227777 0.0056675235 129 28
-0.20127036 0.097432636 0.3836726 0.0054929866 130 28
-0.20431727 0.099874675 0.39317945 0.0059887236 118 26
-0.20093429 0.099190854 0.39045054 0.005117171 126 27
-0.1981408 0.098787256 0.3888973 0.0053296662 119 26
-0.19944449 0.10043885 0.39550883 0.0052673868 122 27
-0.20217939 0.10285216 0.40519929 0.0054172981 119 26
-0.20194413 0.10378856 0.4091523 0.0054494455 119 26
-0.1980782 0.10285909 0.4058224 0.005297774 133 29
-0.19494654 0.10229537 0.40400106 0.0049173455 131 29
-0.19292481 0.1023083 0.40452248 0.0056149252 128 28
-0.19263998 0.10325246 0.40879536 0.0046730577 140 31
-0.19199745 0.10402329 0.41245264 0.0046433061 137 30
-0.19247141 0.10542253 0.41867229 0.0046404889 147 32
-0.19630799 0.10871501 0.43249553 0.0052188877 133 29
nan nan nan 0 182 40
nan nan nan 0 517 114
nan nan nan 0 529 117
nan nan nan 0 168 37
-0.3017669 0.17691658 0.71093142 0.0038388586 175 38
-0.29506662 0.17504102 0.70494288 0.0040227105 173 38
-0.30306503 0.1819448 0.73438329 0.0028400302 234 51
-0.29882932 0.18158239 0.73457336 0.0027350069 281 62
-0.29487771 0.18138582 0.73544055 0.0027335845 298 66
-0.29062289 0.18099546 0.73552108 0.0025226646 328 72
nan nan nan 0 249 55
nan nan nan 0 268 59
nan nan nan 0 485 107
-0.1757713 0.11520825 0.47236335 0.0012972311 815 180
-0.17440435 0.11583086 0.47593975 0.0013372396 768 170
-0.17101704 0.11511033 0.47398037 0.0012704073 833 184
-0.17033979 0.11621918 0.47953859 0.0013385939 802 177
-0.17394391 0.12032019 0.49746686 0.0014491227 701 155
-0.17137924 0.12020936 0.49799255 0.0013788985 700 155
-0.16273175 0.11576803 0.48051864 0.001293113 884 196
-0.15950614 0.1151113 0.47868973 0.0011793281 924 204
-0.15705794 0.11500458 0.47911844 0.001221097 951 210
-0.15491121 0.11511871 0.48044294 0.0011937383 967 214
-0.15300603 0.1154185 0.48252073 0.0012017736 958 212
-0.1506474 0.11538021 0.48316225 0.0012080815 929 205
-0.14870705 0.11566603 0.48513764 0.0012765549 920 204
-0.14776833 0.1167523 0.49045444 0.0013050139 829 183
-0.14740893 0.11833853 0.49786338 0.0013597762 765 169
-0.14666303 0.11966117 0.50415617 0.001401026 714 158
-0.14451565 0.11986528 0.50572038 0.0014264731 692 153
-0.14261796 0.12028687 0.50818062 0.0014465265 709 157
-0.13870594 0.11899485 0.50337189 0.0012827448 810 179
-0.13621458 0.1188978 0.50358647 0.0012563005 869 192
-0.13385209 0.11891174 0.50424713 0.0012131183 893 198
-0.13157958 0.11900757 0.50523239 0.0012010215 915 202
-0.13021204 0.11994054 0.50975376 0.0013929436 802 177
-0.12815228 0.12025893 0.51164651 0.0013164394 794 176
-0.1253704 0.1198989 0.51063097 0.0013438425 762 168
-0.12255187 0.1194891 0.50937885 0.0014005214 764 169
-0.11973294 0.1190626 0.50803149 0.0014170801 730 161
-0.1168583 0.11856226 0.50634539 0.0013502567 757 167
-0.11372464 0.11777297 0.50340122 0.0014335478 771 170
-0.1134446 0.11996797 0.51319885 0.0015309529 697 154
-0.1114243 0.12037776 0.51535022 0.0015768558 656 145
-0.10896115 0.12031665 0.51546872 0.001550996 699 154
nan nan nan 0 614 136
nan nan nan 0 363 80
nan nan nan 0 292 64
nan nan nan 0 420 93
nan nan nan 0 435 96
nan nan nan 0 483 107
-0.099353313 0.12977089 0.55834854 0.0014922657 627 139
-0.098294757 0.13183248 0.56749862 0.0016815214 627 139
-0.097710334 0.13466115 0.5799464 0.0017742463 526 116
-0.094441064 0.13384515 0.57668757 0.0016265186 562 124
-0.091889426 0.13402826 0.57771862 0.0017236749 538 119
nan nan nan 0 395 87
-0.094275579 0.14602935 0.6299336 0.002455435 314 69
-0.090710923 0.14500032 0.62571561 0.0018880873 428 94
-0.087720782 0.14485194 0.62528354 0.0017185368 509 112
-0.084821865 0.14484926 0.62546819 0.0017027039 531 117
-0.08209195 0.14514518 0.62693101 0.0020762396 471 104
-0.080617115 0.14776322 0.63841647 0.002390896 347 76
-0.078034416 0.14847265 0.64164865 0.0024474959 298 66
-0.075102165 0.14854684 0.64212614 0.0027792365 298 66
-0.07158263 0.14741769 0.63739097 0.0026068403 302 66
nan nan nan 0 469 103
nan nan nan 0 546 121
-0.06514664 0.1530806 0.66227341 0.0022433398 400 88
-0.062611699 0.15437996 0.66801095 0.0020906411 393 87
-0.059153333 0.15341918 0.66396075 0.0018240405 452 100
-0.054920211 0.15023391 0.65027297 0.001617672 556 123
-0.051940154 0.15030605 0.65067542 0.0016626107 590 130
-0.048986934 0.15046947 0.65146631 0.0016017188 582 129
-0.045994285 0.15052526 0.65178466 0.0015667521 600 133
-0.043010056 0.15061837 0.65225834 0.0017004692 614 136
-0.040076461 0.15091614 0.65361249 0.0016533602 565 125
-0.037152238 0.15130062 0.65533674 0.0017034136 537 119
-0.034563132 0.15323907 0.66378689 0.0017790578 499 110
-0.031837929 0.15489264 0.67099911 0.0018996998 495 109
-0.029065732 0.15664947 0.67865419 0.0021200588 457 101
-0.026012177 0.15713125 0.68078107 0.0019587546 438 97
-0.022668367 0.15575115 0.67483592 0.0019392545 440 97
-0.019276876 0.15355144 0.6653344 0.0020945575 454 100
-0.016217275 0.1536627 0.66584098 0.0020501553 443 98
-0.013097761 0.15312557 0.66353369 0.001942809 428 94
nan nan nan 0 543 120
-0.0064174822 0.14094444 0.61077487 0.0015012905 655 145
-0.0036075946 0.14130831 0.61235851 0.0016926769 551 122
-0.00080304296 0.14527066 0.6295324 0.0020283503 437 96
0.0021595999 0.14920406 0.64657688 0.0021876951 363 80
0.0051291944 0.14877501 0.64471263 0.0020555786 378 83
0.0080716182 0.14816229 0.64204854 0.001835678 442 98
0.011008955 0.14781037 0.6405105 0.001772554 484 107
0.013923528 0.14736651 0.63856995 0.0018362814 477 105
0.016841749 0.1471096 0.63743562 0.0017973125 478 105
0.019741544 0.14679213 0.63603437 0.0018892204 486 107
0.022257626 0.14407308 0.62422371 0.001879662 469 103
0.024132058 0.13830012 0.59917897 0.0016593192 539 119
0.026175888 0.13458557 0.58304989 0.0015274398 654 145
0.028293723 0.1319088 0.57141423 0.0014731431 698 154
0.03046486 0.12991598 0.56273818 0.0013780999 755 167
0.032927938 0.12938353 0.56038409 0.0014544614 747 165
0.035617303 0.12975305 0.56193161 0.0014607402 737 163
0.038227551 0.1298037 0.56209314 0.0014092023 722 160
0.040873934 0.12996282 0.56271893 0.0013844529 729 161
0.043439236 0.12986054 0.56220716 0.0013685422 740 164
0.045663696 0.12880832 0.55757785 0.0013300552 801 177
0.048126899 0.12850598 0.5561893 0.0012837605 812 180
0.050446227 0.12786962 0.55334932 0.0013005469 841 186
0.052767362 0.12729904 0.55078828 0.0012057783 913 202
0.055323392 0.12732156 0.55078691 0.0012130038 911 202
0.05802409 0.12766041 0.55214638 0.0012864057 916 203
0.060813591 0.12815781 0.55418348 0.0012541679 883 195
0.063251093 0.12790318 0.5529604 0.001283488 818 181
0.065750033 0.12778777 0.55233121 0.0012635713 852 188
0.068326496 0.12782602 0.55235767 0.0012752929 843 186
0.070710525 0.12751448 0.5508638 0.0012606424 850 188
0.073087916 0.12721311 0.54940504 0.0012735144 868 192
0.075590856 0.12714316 0.54893637 0.0012507392 861 190
0.078156494 0.12717979 0.54891765 0.0012611396 858 190
0.081239149 0.12802891 0.5523935 0.0013237239 802 177
0.085110061 0.13003044 0.56082594 0.001399985 721 159
0.087266281 0.12937123 0.55776852 0.0013869229 738 163
0.088620864 0.12759583 0.54989058 0.0013644501 782 173
0.089789793 0.12565997 0.54131508 0.001299023 846 187
0.090202339 0.12279983 0.52875417 0.0012606789 928 205
0.092415966 0.12247828 0.52711701 0.0011552139 979 217
0.093655653 0.12091593 0.52013016 0.0011640203 1036 229
0.096140109 0.12099885 0.52020961 0.0011111497 1037 229
0.098631822 0.12108662 0.52029514 0.0011335183 1038 230
0.10103069 0.12105892 0.51986927 0.0011488516 1028 227
0.10307138 0.12061339 0.51763451 0.0011075417 1050 232
0.10548496 0.1206146 0.51730227 0.0011274635 1029 228
0.10746995 0.12013666 0.51489991 0.0011077385 1102 244
0.10966409 0.11990833 0.51355207 0.0011005129 1097 243
0.11156986 0.11938119 0.51090938 0.0010406753 1154 255
0.11406671 0.11949535 0.51099426 0.0010336826 1189 255
0.11645768 0.1194962 0.51057565 0.0010365327 1177 255
0.11867638 0.11932379 0.5093981 0.0010292254 1205 255
0.12097025 0.11923227 0.50854713 0.0010170754 1215 255
0.12329049 0.11916979 0.50780022 0.00099710259 1256 255
0.12526183 0.11877882 0.50563467 0.0009476667 1379 255
0.12754579 0.11869334 0.50475013 0.0009649503 1348 255
0.12985338 0.11863258 0.50394958 0.00095878431 1342 255
0.13276137 0.11911268 0.50542229 0.00095824292 1372 255
0.13497019 0.11895958 0.50418371 0.00098218559 1300 255
0.13728781 0.11890604 0.50334466 0.0010463652 1190 255
0.1411355 0.12015698 0.50799751 0.001214174 963 213
0.1423147 0.11913218 0.50300348 0.0013091527 892 197
0.14200126 0.11691226 0.49295714 0.0012658673 904 200
0.14100406 0.11421044 0.48088327 0.0012075214 953 211
0.14062934 0.11209089 0.47126603 0.0011349815 1114 247
0.14165542 0.1111369 0.46654424 0.0010702969 1186 255
0.14249232 0.11006626 0.46132213 0.00097573816 1301 255
0.14401411 0.10954916 0.4584069 0.00096219766 1380 255
0.14598383 0.10938321 0.45694196 0.00097260921 1354 255
0.14864847 0.10973516 0.45761579 0.0010907436 1140 252
0.15778533 0.11478526 0.47781819 0.001207334 957 212
0.15854807 0.11368589 0.47236887 0.0011215474 1058 234
0.16580151 0.1172059 0.48607078 0.0014274869 824 182
0.17366482 0.12105289 0.50104678 0.0014503552 661 146
0.17870781 0.12285522 0.50749087 0.0015429566 652 144
nan nan nan 0 382 84
nan nan nan 0 236 52
nan nan nan 0 663 147
0.14372934 0.093657352 0.38362882 0.0011030639 1087 241
0.1430836 0.092036985 0.37616268 0.0013336724 888 196
0.15321778 0.097303778 0.39680347 0.0024115676 322 71
0.15268779 0.095750898 0.38959411 0.0027042483 271 60
0.154376 0.095610306 0.38814369 0.0028909799 257 56
0.15492134 0.094774 0.38387835 0.0030945861 234 51
0.15403025 0.093089789 0.37620544 0.0032440843 228 50
0.15214591 0.0908527 0.3663415 0.0030443324 230 51
0.15317185 0.090385765 0.36365107 0.0030586291 235 52
0.15433924 0.090012208 0.36135951 0.0029879643 262 58
0.15608875 0.08998286 0.3604733 0.0031791579 237 52
0.16087303 0.091683723 0.36652911 0.0032583829 235 52
0.16466771 0.092788622 0.37020934 0.0034987244 233 51
0.1771781 0.098725386 0.39314917 0.0037337716 215 47
0.18015243 0.09927623 0.39463449 0.0039349655 208 46
0.17997727 0.09809842 0.38929957 0.0037318682 206 45
0.17544726 0.094597958 0.37482822 0.0034074613 207 45
0.17531347 0.093517259 0.37002623 0.0037779657 208 46
0.16872983 0.089055173 0.35192996 0.0033494025 212 47
0.16691622 0.087177612 0.34413484 0.0034570571 193 42
0.15152407 0.078320362 0.30888623 0.0031320807 250 55
0.14548483 0.074429266 0.29332167 0.0021596628 373 82
0.14666893 0.07427498 0.29254869 0.0021729604 374 82
0.14756909 0.073981464 0.29128188 0.0025106256 340 75
0.1489566 0.073935665 0.29104507 0.0023270738 321 71
0.15094124 0.074184246 0.29202127 0.0025452089 292 64
0.15349008 0.074702576 0.29411373 0.0028250399 250 55
0.15531711 0.074863002 0.29485139 0.002991511 245 54
0.15661021 0.074765459 0.29462603 0.0031530373 226 50
-0.15480238 0.066743091 0.26392451 0.0034008699 190 42
-0.15970133 0.069442391 0.27392921 0.0031368637 215 47
-0.15787961 0.069240659 0.27249348 0.0029172231 218 48
-0.15695761 0.069433451 0.27263954 0.0029275168 248 54
-0.1579542 0.070485756 0.27618071 0.0033837224 240 53
-0.15701035 0.070683099 0.27639413 0.0027877903 251 55
-0.15409277 0.069987506 0.27315369 0.0026998085 276 61
-0.15530655 0.071172707 0.27728614 0.0029432988 265 58
-0.16283174 0.075297974 0.29287595 0.004571123 168 37
-0.18358554 0.085671991 0.33272511 0.006753407 84 18
-0.18039094 0.084958673 0.3295064 0.0060139764 111 24
-0.18240608 0.086708546 0.33588716 0.0051902141 124 27
-0.18393123 0.088256232 0.34152374 0.00549465 133 29
-0.18709038 0.090624832 0.35037875 0.0050686458 127 28
-0.19601585 0.095858797 0.37034881 0.0049521225 134 29
-0.20251866 0.099997848 0.38613003 0.0054919128 123 27
-0.20271268 0.10107233 0.39013621 0.0064120083 120 26
-0.19938745 0.10039597 0.38745388 0.0061372584 121 26
-0.19829993 0.10084412 0.38918275 0.0052480288 118 26
-0.19946359 0.10245766 0.39548191 0.0058942186 112 24
-0.20007017 0.10381494 0.40086782 0.0052743345 128 28
-0.19968756 0.10468158 0.40443608 0.0052186036 122 27
-0.19795148 0.10484934 0.40537903 0.0053112572 117 25
-0.19576137 0.1047776 0.4054673 0.0049681161 127 28
-0.19440602 0.10515587 0.40736678 0.0058579128 127 28
-0.1925139 0.10524879 0.40822884 0.0049687722 133 29
-0.19149022 0.10582366 0.41102624 0.0047856332 132 29
-0.19319172 0.10793363 0.41986045 0.0051818625 130 28
-0.19270454 0.10885403 0.42414099 0.0048970389 136 30
-0.19384478 0.11072463 0.43219376 0.0050549554 115 25
nan nan nan 0 193 42
nan nan nan 0 563 124
nan nan nan 0 269 59
-0.29708201 0.1776537 0.69900095 0.0040847389 174 38
-0.29359594 0.17765233 0.70050591 0.0042469269 185 41
-0.29020625 0.17770989 0.70227432 0.003701102 179 39
-0.29905346 0.18535334 0.73411113 0.0029284987 244 54
-0.29430878 0.18465692 0.7329936 0.0029503198 240 53
-0.29025331 0.18438098 0.73354471 0.0035535647 228 50
nan nan nan 0 277 61
nan nan nan 0 314 69
-0.187162 0.12350871 0.4946681 0.0017253401 509 112
-0.17862712 0.11942192 0.47934803 0.001419398 688 152
-0.17292404 0.11714489 0.47122377 0.001327952 774 171
-0.17067163 0.11717562 0.47234869 0.0013843784 802 177
-0.17032865 0.11853604 0.47882861 0.0014769232 747 165
-0.17182663 0.12123299 0.4907223 0.001558934 700 155
-0.17122801 0.12250558 0.49686244 0.0015113483 642 142
-0.16295609 0.11824641 0.48052108 0.0012991043 832 184
-0.15999033 0.11777015 0.47949278 0.0011674477 995 220
-0.15708022 0.11732154 0.4785468 0.0012004256 1002 222
-0.15462892 0.11720734 0.47893712 0.0011441191 1020 226
-0.15239921 0.1172602 0.47998565 0.0011517707 990 219
-0.15098509 0.11795185 0.4836297 0.0012157707 916 203
-0.14880595 0.11805805 0.48485413 0.0013330479 883 195
-0.14719328 0.11862414 0.48794702 0.001253276 851 188
-0.14517459 0.11887595 0.48972759 0.00133171 780 172
-0.14604138 0.12153728 0.50142747 0.0014232135 723 160
-0.14515075 0.12280013 0.50735617 0.001462831 690 153
-0.14274427 0.12280152 0.50805539 0.0014176018 689 152
-0.13955089 0.12211437 0.50587749 0.0013344062 759 168
-0.13639542 0.12143699 0.50370866 0.0012075979 876 194
-0.13394333 0.12137289 0.50405604 0.0012175634 891 197
-0.13159093 0.12139843 0.5047524 0.0012105774 918 203
-0.12940411 0.12158052 0.50607777 0.0012259959 891 197
-0.12806071 0.12257671 0.51077491 0.0014472663 793 175
-0.1255262 0.12244912 0.51077133 0.0014389749 765 169
-0.12255549 0.12188272 0.50891304 0.0013470725 775 171
-0.11958951 0.12129862 0.50695527 0.0013324119 780 172
-0.11641363 0.12047358 0.50396502 0.0014034901 781 173
-0.11377361 0.12018039 0.50317597 0.0013936027 776 172
-0.11176279 0.12055349 0.50515783 0.0014107021 729 161
-0.11162615 0.123008 0.51585257 0.0015947587 673 149
-0.10894992 0.12271058 0.51499587 0.0015095855 646 143
-0.1085554 0.12502764 0.52509993 0.0015738236 615 136
nan nan nan 0 519 115
nan nan nan 0 348 77
-0.11934066 0.14743941 0.62044972 0.0020863938 346 76
-0.11090132 0.14041486 0.59124148 0.0017852264 510 113
-0.10818021 0.14045691 0.59175366 0.0017452895 512 113
-0.10288371 0.13707006 0.57779557 0.0016453963 535 118
-0.097974904 0.13403182 0.56527722 0.0016667286 585 129
-0.095938079 0.13486332 0.56906003 0.0015995775 599 132
-0.094592832 0.13674171 0.57725132 0.0017587258 556 123
-0.093740903 0.13946363 0.58899826 0.0018547894 485 107
-0.09716849 0.14890736 0.62914127 0.0026036988 320 70
-0.094760388 0.14971621 0.63280541 0.0023002522 314 69
-0.090791531 0.14803202 0.62591732 0.0020772414 412 91
-0.087581582 0.14751481 0.62394744 0.0018131023 490 108
-0.084734045 0.14759357 0.62448519 0.0017410386 506 112
-0.081953026 0.14779782 0.62554264 0.0018347831 479 106
-0.079355516 0.14836013 0.62810528 0.0021824492 399 88
-0.078158244 0.15168273 0.64234757 0.0026824113 307 68
-0.075136416 0.15158716 0.64210767 0.0027179504 270 59
-0.072270975 0.15181226 0.64321607 0.0026472891 262 58
nan nan nan 0 340 75
nan nan nan 0 557 123
nan nan nan 0 482 106
-0.062530324 0.15726322 0.66685635 0.0023085303 392 86
-0.059461534 0.1573032 0.66713995 0.0019750879 409 90
-0.055285819 0.15425898 0.65433323 0.0017245725 503 111
-0.052039839 0.15360671 0.65166235 0.001801611 555 123
-0.048998505 0.15351541 0.65136367 0.0016867543 570 126
-0.045978408 0.15348306 0.65130824 0.001599453 579 128
-0.043005839 0.15361595 0.65194756 0.0016638319 584 129
-0.040043365 0.15380765 0.65283012 0.0016749671 549 121
-0.037108824 0.15414661 0.65433186 0.0018137759 557 123
-0.034213524 0.15472312 0.65683657 0.0017607068 511 113
-0.031586837 0.15674481 0.66547155 0.0018298615 485 107
-0.028877897 0.15875021 0.67403305 0.0019185372 448 99
-0.025384592 0.15640731 0.66412705 0.0018845664 478 105
-0.022201654 0.15559562 0.66071659 0.0018452753 480 106
-0.019179031 0.15582781 0.66173381 0.001947042 440 97
-0.016148398 0.15607059 0.66279119 0.0019606845 432 95
nan nan nan 0 508 112
-0.0092536639 0.14402829 0.61168653 0.001502696 631 139
-0.006432917 0.14410938 0.61204243 0.0016059058 599 132
-0.0037084187 0.14816301 0.62926602 0.0018811221 486 107
-0.00081412483 0.15022118 0.63801074 0.0020485925 417 92
0.0021637869 0.15248351 0.64761811 0.0022235578 367 81
0.0051732045 0.15305288 0.65003103 0.0022370135 341 75
0.0081061767 0.15177286 0.64458489 0.0020499991 393 87
0.010984793 0.15043597 0.63889301 0.0020204624 451 100
0.013904523 0.15010895 0.63748568 0.0019003572 476 105
0.016779054 0.14949352 0.63484931 0.0018780753 479 106
0.019611545 0.14874229 0.63163197 0.0019178084 477 105
0.022197576 0.14655836 0.62232643 0.0019716213 471 104
0.023739357 0.13877083 0.58922416 0.001631233 570 126
0.025787216 0.13523917 0.57419074 0.0014190009 714 158
0.028077545 0.13351923 0.56684625 0.0013561907 773 171
0.030405743 0.13225742 0.56144297 0.0013664666 779 172
0.032932419 0.13198943 0.5602541 0.001334115 765 169
0.035334513 0.13129756 0.55726129 0.0013279821 785 174
0.038055588 0.13180445 0.55935109 0.0014009668 732 162
0.04067662 0.13192242 0.55978459 0.001410472 727 161
0.043069661 0.13133106 0.5572027 0.0013644242 754 167
0.045530714 0.13100213 0.55572861 0.0013291833 781 173
0.048040625 0.1308414 0.55496216 0.0013024529 798 176
0.050793383 0.13132484 0.55692112 0.0012807826 822 182
0.052829832 0.129999 0.55120111 0.0012800246 865 191
0.055175655 0.12952144 0.54907221 0.0012329045 952 211
0.057768468 0.12964019 0.54946393 0.0012325271 928 205
0.06051546 0.13008037 0.55120963 0.0013185688 852 188
0.063268431 0.13049728 0.55284768 0.0013059829 798 176
0.065991513 0.13082249 0.55408812 0.0013204666 789 174
0.068297699 0.13032785 0.5518474 0.0012759899 818 181
0.070537008 0.12974587 0.54922867 0.0012531225 877 194
0.072903283 0.1294298 0.54772717 0.0012810421 893 198
0.07537023 0.12930775 0.54703689 0.0012412411 879 194
0.07809376 0.12961952 0.54817134 0.0013348589 834 184
0.0808933 0.13003381 0.5497272 0.0013174074 809 179
0.084565818 0.13178317 0.55691224 0.0014192557 733 162
0.08710023 0.13170783 0.55637139 0.0013702292 737 163
0.088186152 0.12950957 0.5468542 0.0013110192 787 174
0.089739412 0.12810151 0.54066736 0.0012756664 833 184
0.09015736 0.12519361 0.52814549 0.0011821266 930 206
0.092031054 0.12440778 0.52456981 0.0011571131 976 216
0.093605593 0.12326857 0.51949441 0.0011682499 1022 226
0.09595719 0.12318425 0.51885325 0.0011206197 1038 230
0.098483451 0.12332281 0.51913589 0.0011162303 1035 229
0.10065132 0.12301669 0.51753193 0.0011614182 1036 229
0.10303225 0.12297919 0.51704323 0.0011892242 1028 227
0.10529161 0.12280164 0.5159499 0.0011250854 1044 231
0.10757832 0.12266322 0.51500511 0.0011024318 1056 234
0.10964237 0.12228251 0.51302737 0.0010982365 1145 253
0.11186663 0.12209295 0.51183569 0.0010493747 1159 255
0.11393217 0.12174174 0.50994974 0.0010257565 1191 255
0.11641508 0.12184177 0.50993603 0.0010285905 1195 255
0.11883925 0.12187754 0.50963342 0.001058178 1233 255
0.12118129 0.12182932 0.50895965 0.0010071985 1240 255
0.12331311 0.12157573 0.5074088 0.0010214244 1239 255
0.1257271 0.12160465 0.50701702 0.00096588238 1309 255
0.12769954 0.12121338 0.50485331 0.00097173435 1313 255
0.13007173 0.12120893 0.50428045 0.00097939011 1352 255
0.13207527 0.12086726 0.50228387 0.00095784501 1361 255
0.13434966 0.12078115 0.50132847 0.00099378999 1289 255
0.13814493 0.12204159 0.50593305 0.0010930478 1110 246
0.14170995 0.1230592 0.5094949 0.0012663851 897 198
0.14196317 0.12121492 0.50118816 0.0012289811 895 198
0.13871391 0.11649007 0.48098373 0.0012206228 978 216
0.14079852 0.11632507 0.47961119 0.0011967807 983 217
0.1401768 0.11396503 0.46917978 0.0010375259 1164 255
0.1408601 0.1127234 0.46335146 0.0010007422 1260 255
0.14267227 0.11240959 0.46132329 0.0010133887 1299 255
0.14433315 0.1119879 0.45883384 0.00096727826 1328 255
0.14650896 0.11197244 0.45798832 0.0009847125 1317 255
0.1473103 0.11092246 0.45289603 0.0010240918 1293 255
0.1554454 0.11534491 0.47009987 0.0011455863 1039 230
0.15879816 0.11614274 0.47246954 0.0011032911 1037 229
0.16190635 0.11674167 0.47399688 0.0012419756 986 218
nan nan nan 0 716 158
nan nan nan 0 525 116
nan nan nan 0 282 62
nan nan nan 0 390 86
0.14210556 0.095698759 0.3845855 0.0010688013 1015 225
0.14389656 0.095641844 0.38352275 0.0011011715 1223 255
0.14228088 0.093351237 0.37351459 0.0016265393 550 121
0.15389371 0.099687889 0.39798287 0.0025474944 310 68
0.15494083 0.099107251 0.39477995 0.0028768089 253 56
0.15409124 0.097342812 0.38688144 0.002997085 236 52
0.1543411 0.096307606 0.38190854 0.0035294066 235 52
0.15345144 0.094594955 0.3742795 0.0034988353 228 50
0.1523691 0.092805877 0.36638877 0.0033223482 229 50
0.15295208 0.092061371 0.36265755 0.0035911528 234 51
0.15402646 0.09162657 0.36017421 0.003547316 227 50
0.15633853 0.091929562 0.36061445 0.0030141538 235 52
0.15978096 0.092882752 0.36362213 0.0032393925 216 47
0.16528019 0.094996616 0.37118208 0.0032421702 224 49
0.17375512 0.098754615 0.38516074 0.0036082689 213 47
0.1780805 0.10009734 0.38972718 0.0034589679 205 45
0.18045619 0.10032685 0.38999793 0.003518295 208 46
0.17836186 0.09809304 0.38075766 0.0034431189 203 45
0.17464024 0.095021494 0.3683503 0.0033612628 207 45
0.17295025 0.093108527 0.36051634 0.0034833318 197 43
nan nan nan 0 215 47
0.14628406 0.07712426 0.29808202 0.0023244352 339 75
0.14533974 0.075842276 0.29293734 0.0020994402 374 82
0.14683765 0.075847782 0.29282168 0.0022126955 352 78
0.14888957 0.076136485 0.29385272 0.0022537552 359 79
0.1486185 0.075243354 0.2903766 0.0023548864 328 72
0.15103188 0.075713523 0.29221553 0.0024627312 309 68
0.15337659 0.076140434 0.29394144 0.0029423302 262 58
0.15581423 0.076604813 0.29586604 0.0031918248 226 50
0.15704593 0.076473095 0.29554102 0.0037861527 208 46
-0.16069207 0.070641041 0.27426419 0.0035115588 180 39
-0.15937021 0.07065735 0.27365068 0.0034054352 214 47
-0.15808406 0.070689894 0.2731261 0.0035333324 209 46
-0.15462647 0.069743574 0.26885572 0.0030656361 221 49
-0.15779182 0.0717941 0.27615833 0.0031489215 234 51
-0.15581772 0.071521759 0.2745426 0.0032347734 221 49
-0.15479179 0.07168366 0.27462775 0.0030688129 228 50
-0.153106 0.071540162 0.27357727 0.0027613689 267 59
-0.15517974 0.073166654 0.27932197 0.0036205952 216 47
-0.1849813 0.088016115 0.3354862 0.0062465933 114 25
-0.18252289 0.087648459 0.33360964 0.0057857283 95 21
-0.18066038 0.087562777 0.33285871 0.0053315959 139 30
-0.18063043 0.088372037 0.33555841 0.0047642398 131 29
-0.18663529 0.092177205 0.34967038 0.0050229752 130 28
-0.19314277 0.096305966 0.36504158 0.0052879243 128 28
-0.19784692 0.099606797 0.37731647 0.0050786329 126 27
-0.19892322 0.10112785 0.3829048 0.0052909143 119 26
-0.19873577 0.10203017 0.38621497 0.0053306217 120 26
-0.19852467 0.10293819 0.38961518 0.0055026598 118 26
-0.20067787 0.10510279 0.39784285 0.0056171976 110 24
-0.19963793 0.10562205 0.39991611 0.0064309933 118 26
-0.19769628 0.10567002 0.40027809 0.0053315545 120 26
-0.19677849 0.10627193 0.40281165 0.0065336921 119 26
-0.19547872 0.10667802 0.40467647 0.0050557731 128 28
-0.19328979 0.10660234 0.40478355 0.0050055454 126 27
-0.19209018 0.1070765 0.40704668 0.0048000552 137 30
-0.19234447 0.10838017 0.41253504 0.0049802568 136 30
-0.19250487 0.10965894 0.41800255 0.0052481573 119 26
-0.19319452 0.11127084 0.42481366 0.0049880911 130 28
-0.1925586 0.11214685 0.42888376 0.0051218295 128 28
-0.1881216 0.11080384 0.42451254 0.0045296955 121 26
-0.16213757 0.096593432 0.37077355 0.0020116842 351 77
-0.16473299 0.099277169 0.38183215 0.0019878948 551 122
nan nan nan 0 211 46
-0.29237995 0.18038583 0.69668466 0.0037177803 188 41
-0.28842592 0.1800832 0.69701916 0.0030295844 233 51
nan nan nan 0 260 57
-0.29417178 0.18819036 0.73161596 0.0030964096 217 48
-0.28907323 0.18723233 0.72951418 0.0031040362 278 61
nan nan nan 0 241 53
nan nan nan 0 278 61
-0.18547286 0.12479417 0.48948532 0.0016295799 537 119
-0.17862035 0.12175915 0.47862652 0.0014892544 661 146
-0.17260721 0.11922325 0.46967152 0.0014469472 737 163
-0.16871531 0.11810396 0.46625313 0.0013559459 843 186
-0.16787845 0.11912191 0.47125596 0.0012824469 855 189
-0.17183261 0.12361462 0.49003282 0.0014187723 741 164
-0.16934338 0.12353308 0.49069276 0.0014175198 671 148
-0.16325589 0.12078699 0.48072577 0.0012430764 872 193
-0.15982927 0.11995873 0.47834218 0.0011483376 1009 223
-0.15739286 0.11986029 0.4788397 0.0011798952 991 219
-0.15446475 0.11937887 0.4777799 0.0011202618 1052 233
-0.15294889 0.1199909 0.48107365 0.0011718537 974 215
-0.1507961 0.12011432 0.48238969 0.0011815114 942 208
-0.14889817 0.12044775 0.48452803 0.0012460862 895 198
-0.14697994 0.12077503 0.48662144 0.0013353089 832 184
-0.14505337 0.12110588 0.48870909 0.0013282502 773 171
-0.145493 0.12345529 0.49893418 0.0015103213 704 156
-0.14348799 0.12377391 0.50094318 0.0013958075 722 160
-0.14268902 0.12516117 0.50726229 0.001409494 708 156
-0.14008503 0.12498557 0.50722957 0.0013563294 740 164
-0.13690612 0.12428196 0.50502515 0.0013073053 787 174
-0.13420846 0.12399795 0.50449693 0.0012591475 882 195
-0.13217832 0.12433156 0.50645858 0.001294993 832 184
-0.12955584 0.12411003 0.50613654 0.0011921803 940 208
-0.12737092 0.12430722 0.50749958 0.0012403177 889 197
-0.12536691 0.12469188 0.50960863 0.0013743775 770 170
-0.12262107 0.12433932 0.50868356 0.0014204643 759 168
-0.11915806 0.12323106 0.50463992 0.0013325739 776 172
-0.11650208 0.12292936 0.50387365 0.00133225 772 171
