# .PCD v0.7 - Point Cloud Data file format
VERSION 0.7
FIELDS x y z noise intensity gray
SIZE 4 4 4 4 2 1
TYPE F F F F U U
COUNT 1 1 1 1 1 1
WIDTH 991
HEIGHT 1
VIEWPOINT 0 0 0 1 0 0 0
POINTS 991
DATA ascii
-0.25092146 -0.14640857 0.74880821 0.0075823553 76 17
-0.2424587 -0.14351282 0.73524213 0.0053389105 114 26
-0.23810253 -0.14299855 0.73380578 0.0045449655 153 35
-0.25402287 -0.15482756 0.79575986 0.003918774 179 40
-0.25343654 -0.15680091 0.80712563 0.0038304545 185 42
-0.24866323 -0.15620452 0.80523032 0.004721438 153 35
-0.24158794 -0.15412106 0.79560578 0.0061599384 111 25
-0.22847334 -0.14805803 0.76533788 0.0082063125 79 18
-0.2208813 -0.1454366 0.75276029 0.0090044355 64 14
-0.22058554 -0.14761212 0.76496869 0.0086246673 66 15
nan nan nan 0 97 22
nan nan nan 0 149 34
-0.19681948 -0.13848847 0.72014189 0.0049076891 146 33
-0.19263518 -0.13791077 0.71788406 0.0052083065 118 27
nan nan nan 0 72 16
nan nan nan 0 51 11
nan nan nan 0 41 9
nan nan nan 0 41 9
nan nan nan 0 57 13
nan nan nan 0 80 18
-0.17537203 -0.1430324 0.74906093 0.0063900738 86 19
-0.17050262 -0.141883 0.74356449 0.0066404156 89 20
-0.16597719 -0.14097817 0.73931593 0.0061342474 99 22
-0.16278405 -0.1411906 0.74089825 0.0062035066 98 22
-0.16323726 -0.1446432 0.75947046 0.0057487795 108 24
-0.16104932 -0.14585635 0.76627386 0.0053654672 114 26
-0.15493086 -0.14348416 0.7542147 0.0046014027 135 30
-0.14794238 -0.14017798 0.73720807 0.0044708592 159 36
-0.1435394 -0.13922316 0.73253524 0.0037986464 181 41
-0.14031728 -0.13939516 0.733769 0.0044835671 159 36
-0.13877441 -0.14128534 0.74403244 0.0044323537 152 34
-0.13500437 -0.14094657 0.74254233 0.0039678337 163 37
-0.13103046 -0.14037168 0.73978841 0.0034881821 195 44
-0.1259253 -0.13852157 0.73029208 0.003141999 221 50
-0.12218286 -0.1381098 0.72835833 0.0030845017 228 52
-0.11937258 -0.13875821 0.73200071 0.0033827457 199 45
-0.11665934 -0.13956058 0.73644251 0.0037785892 175 40
-0.11522645 -0.14198886 0.7494545 0.0038588678 168 38
-0.11171617 -0.14192842 0.74931979 0.0035268425 189 43
-0.10804691 -0.14165571 0.74805087 0.0032204126 211 48
-0.10471586 -0.14182301 0.749093 0.0032084968 227 51
-0.10111958 -0.14163026 0.74822146 0.0032434654 229 52
-0.097665712 -0.14163041 0.74835777 0.0030462197 233 53
-0.094346471 -0.14183295 0.74955314 0.00311005 228 52
-0.090741985 -0.14160578 0.74846756 0.0032511142 227 51
-0.086899087 -0.14097385 0.74523252 0.0034134816 221 50
-0.083122641 -0.14040211 0.74230623 0.0033898221 226 51
-0.079560876 -0.14015944 0.74111092 0.0033218889 221 50
-0.075884908 -0.13968477 0.73868066 0.003527323 221 50
-0.072518133 -0.13976137 0.73915845 0.0031859775 215 49
-0.068883374 -0.13930357 0.73680294 0.0033617476 210 48
-0.065572366 -0.13948698 0.73783261 0.0034644378 216 49
-0.062609918 -0.14047247 0.74309987 0.0031548198 221 50
-0.059318896 -0.14079222 0.74484026 0.0030403058 230 52
-0.05604995 -0.14120685 0.74707788 0.0030241252 234 53
-0.052811019 -0.14175634 0.75002462 0.0029353136 242 55
-0.049505875 -0.14219262 0.75236851 0.0030048625 243 55
-0.046263225 -0.14288764 0.75607771 0.0031418377 225 51
-0.042956669 -0.14348245 0.7592532 0.0035586481 214 48
-0.039461028 -0.14349514 0.75934523 0.0035760943 219 50
-0.035780549 -0.14277275 0.75554419 0.003438856 223 51
-0.032142725 -0.14208323 0.75191396 0.0030141009 235 53
-0.028459694 -0.14100303 0.74621361 0.0032762724 233 53
-0.024765024 -0.13956039 0.73859239 0.0033970852 225 51
-0.021096356 -0.13782789 0.72943491 0.0031539013 219 50
-0.017561054 -0.13647515 0.72228491 0.0034812114 215 49
-0.014009796 -0.13433674 0.71097493 0.0033172998 218 49
-0.010555617 -0.13210797 0.69918478 0.0030965593 222 50
-0.0072219744 -0.13009231 0.68852085 0.0032445118 214 48
-0.0039516464 -0.12695228 0.67190439 0.0033811706 202 46
-0.00085951266 -0.12752749 0.67494988 0.0040990808 176 40
0.0022720762 -0.12874864 0.68141264 0.0043027382 165 37
0.0054477369 -0.1296013 0.68592376 0.0038271593 171 39
0.0087522194 -0.13176729 0.69738412 0.0040906663 155 35
0.012014532 -0.13230555 0.7002281 0.0043536192 144 32
0.015590949 -0.13534257 0.71629518 0.0051432764 128 29
nan nan nan 0 103 23
0.02276684 -0.13884708 0.734824 0.0052183359 113 25
0.025663378 -0.13624802 0.72105688 0.0056081498 112 25
0.029022645 -0.13641986 0.72195196 0.0062370007 102 23
0.032249555 -0.1359982 0.71970385 0.0050757709 129 29
0.035325848 -0.13507925 0.71482188 0.004064844 156 35
0.038448714 -0.13447997 0.71162879 0.0037266111 171 39
0.041662477 -0.13426784 0.71048182 0.0034599574 191 43
0.044809651 -0.13388765 0.70844215 0.0037178234 192 43
0.047912508 -0.13343568 0.7060194 0.0033535073 201 46
0.0508646 -0.13264801 0.70181698 0.0032809768 212 48
0.053984415 -0.13236579 0.70028502 0.0032932204 220 50
0.057076901 -0.13205218 0.69858253 0.0030868771 223 51
0.060535893 -0.13257475 0.70129853 0.0034420877 212 48
0.063973598 -0.13300008 0.70349467 0.0033018675 207 47
0.067486607 -0.13353334 0.70625567 0.0034150581 196 44
0.071134396 -0.13427192 0.71009582 0.0034654932 194 44
0.074693352 -0.13478519 0.71273726 0.0037295693 177 40
0.078057282 -0.13491809 0.71335971 0.0048930161 145 33
0.081162877 -0.1346118 0.71165264 0.0041071097 159 36
0.083629221 -0.1333103 0.70467728 0.0035329186 182 41
0.086541086 -0.13278985 0.70182317 0.0032620966 210 48
0.089275591 -0.1320446 0.6977731 0.0033437226 225 51
0.092646681 -0.13225999 0.69879025 0.0033254432 229 52
0.09608487 -0.13255346 0.70020944 0.0032078635 225 51
0.099329971 -0.13257016 0.70015544 0.0033329474 222 50
0.102606 -0.13262576 0.70029557 0.0034391952 223 51
0.10525021 -0.13188623 0.69622624 0.0030781752 226 51
0.10813074 -0.13147792 0.69389445 0.0030601381 222 50
0.11001352 -0.12991488 0.68545806 0.0030980424 228 52
0.11296412 -0.12966503 0.68393952 0.003203796 216 49
0.11578169 -0.12928025 0.681696 0.0036822353 197 45
0.11887263 -0.12921305 0.681113 0.0044513126 163 37
0.12342656 -0.13069847 0.68869627 0.005031954 132 30
0.12903662 -0.13319932 0.70160574 0.0061378386 105 24
0.13182028 -0.13273139 0.69885641 0.0062651718 94 21
0.13524356 -0.13291453 0.69951737 0.0066674976 89 20
0.13918132 -0.13358286 0.70271111 0.0070635388 84 19
0.14292115 -0.13403501 0.70474517 0.0067586922 86 19
0.14598344 -0.13384575 0.70338529 0.0071166866 93 21
0.14776312 -0.13251448 0.69600719 0.0061680274 94 21
0.15059817 -0.1321664 0.69377607 0.0058177379 101 23
0.15317678 -0.1316126 0.6904453 0.0061743367 107 24
0.1564865 -0.13169681 0.69043946 0.0053653098 113 25
0.16023754 -0.13214156 0.69229794 0.0057541821 119 27
0.16326548 -0.1319842 0.69097573 0.005095765 118 27
0.16651526 -0.13200885 0.69058084 0.0056713149 112 25
0.16960754 -0.13191003 0.6895138 0.0077014547 89 20
0.17628342 -0.13455014 0.7027247 0.0086017232 65 14
0.1790728 -0.1341815 0.70018286 0.0094341142 65 14
0.18132667 -0.13343209 0.69562948 0.0082925623 74 16
0.18524268 -0.13391064 0.69744867 0.0072063268 81 18
0.18968552 -0.13474683 0.70109248 0.0065160813 95 21
0.19634669 -0.13710354 0.71259755 0.0058978619 101 23
nan nan nan 0 172 39
nan nan nan 0 110 25
0.22149132 -0.14714423 0.76212597 0.0059323958 119 27
0.22640382 -0.14800982 0.76564085 0.003720108 179 40
0.2351511 -0.15131588 0.78171229 0.0032365106 222 50
0.24157946 -0.15305063 0.78958982 0.0033229762 224 51
0.24836913 -0.15495801 0.79828882 0.0034321926 232 53
0.25347012 -0.15577045 0.8012833 0.0031339163 230 52
0.25744289 -0.15587579 0.80058873 0.0031635344 235 53
0.26196408 -0.15630528 0.8015098 0.003423345 231 52
0.26710096 -0.15708455 0.80416906 0.0036261827 199 45
0.26549578 -0.15393275 0.78667927 0.0051013627 145 33
0.2493391 -0.14254963 0.72720939 0.0043877508 145 33
0.25511351 -0.14384539 0.73247051 0.0051603806 128 29
0.26278645 -0.14616191 0.74285388 0.010787417 61 13
0.26023376 -0.14280508 0.72437304 0.013544855 48 10
0.26315257 -0.14249979 0.72136837 0.0082526011 78 17
0.27159032 -0.14515203 0.73327339 0.0061803246 102 23
0.27991104 -0.14767431 0.74443042 0.0052597807 134 30
0.2845493 -0.14821441 0.74552739 0.0039325757 167 38
0.29146942 -0.14991462 0.75240237 0.0040775975 157 35
nan nan nan 0 139 31
0.29848641 -0.14976658 0.74822408 0.0068354476 100 22
nan nan nan 0 110 25
0.29674056 -0.14533389 0.72266382 0.0050842953 123 28
0.29591066 -0.14321683 0.71043712 0.0043757311 155 35
0.30938345 -0.14799073 0.73235863 0.0038727752 169 38
0.31369472 -0.14832273 0.73224181 0.004573429 143 32
nan nan nan 0 139 31
nan nan nan 0 203 46
nan nan nan 0 197 45
nan nan nan 0 185 42
nan nan nan 0 159 36
nan nan nan 0 137 31
0.30772063 -0.13463114 0.6542511 0.0042932257 149 34
0.31010726 -0.13424298 0.65110528 0.0046703974 148 33
0.31981108 -0.1369974 0.66326481 0.0042511914 148 33
0.32277349 -0.13683692 0.66138381 0.0045635798 129 29
0.31893265 -0.13382503 0.64584696 0.0049812659 139 31
nan nan nan 0 136 31
0.33564788 -0.13801421 0.66438419 0.0069874483 100 22
0.33928332 -0.13812399 0.66425431 0.0070167901 97 22
0.35168684 -0.14176606 0.68122447 0.0075952127 83 18
0.35801715 -0.14291292 0.6863215 0.0074409847 84 19
0.35387346 -0.13989697 0.67156678 0.010011435 56 12
0.33569732 -0.13144411 0.63086182 0.0090501513 66 15
-0.38127157 -0.12895907 0.64369589 0.0088959597 64 14
-0.3904351 -0.13318454 0.66341853 0.0070890291 84 19
-0.39119437 -0.13459119 0.66913247 0.0067270692 85 19
-0.39139044 -0.1358268 0.67406583 0.0082724914 71 16
-0.39177135 -0.13714871 0.67950571 0.0095606819 57 13
nan nan nan 0 68 15
-0.37651032 -0.13415413 0.66279113 0.0080269836 81 18
-0.37106392 -0.13340168 0.65830517 0.0089659877 65 14
-0.36630407 -0.13288465 0.65510345 0.0055883685 101 23
-0.37830171 -0.13849291 0.68219817 0.0060049244 112 25
-0.36992201 -0.13667591 0.6728282 0.0066478378 90 20
-0.36791885 -0.13720296 0.67513192 0.0072424053 82 18
-0.36703911 -0.13816282 0.6796965 0.0079985643 72 16
-0.36687616 -0.13941325 0.68582529 0.0073710252 76 17
-0.36773893 -0.14108123 0.69414836 0.0075316271 83 18
-0.36354178 -0.14082146 0.69312829 0.0071718763 95 21
-0.35642585 -0.13941497 0.68659937 0.0066510011 89 20
nan nan nan 0 75 17
-0.32390121 -0.12921992 0.6374979 0.0066644968 85 19
-0.31355029 -0.12635046 0.62406081 0.0062814094 99 22
-0.3498877 -0.14242789 0.70440662 0.0088713448 67 15
-0.34594876 -0.14227216 0.7046923 0.0082720742 70 16
-0.3422958 -0.14223202 0.70566076 0.0063111559 94 21
nan nan nan 0 113 25
-0.3229703 -0.1370488 0.68248248 0.0062426785 91 20
nan nan nan 0 106 24
-0.32702529 -0.14177719 0.70898479 0.0062175784 99 22
-0.3228299 -0.14149167 0.70912951 0.0039076018 148 33
nan nan nan 0 135 30
-0.27633494 -0.12382684 0.62347394 0.002704541 262 59
nan nan nan 0 322 73
nan nan nan 0 334 76
-0.28205612 -0.13078538 0.66326249 0.0043122373 164 37
-0.2818253 -0.13221075 0.67211145 0.0044372142 161 36
nan nan nan 0 135 30
-0.2928001 -0.14065816 0.71848845 0.0052094855 126 28
nan nan nan 0 128 29
nan nan nan 0 139 31
nan nan nan 0 134 30
nan nan nan 0 163 37
-0.28535688 -0.14583883 0.75350052 0.0057906588 120 27
-0.27947205 -0.14467953 0.7491141 0.0047997576 137 31
nan nan nan 0 178 40
nan nan nan 0 133 30
-0.26829204 -0.1445016 0.75276572 0.0055746939 113 25
-0.26171473 -0.14288273 0.74575841 0.0066429172 97 22
-0.25400382 -0.14059162 0.73516214 0.0078328317 79 18
-0.25024837 -0.14045627 0.73577309 0.012111229 49 11
-0.24835065 -0.14137463 0.7418685 0.013938789 46 10
-0.24292107 -0.14027993 0.73735684 0.0063664443 93 21
-0.237689 -0.13926892 0.73322445 0.0049272338 125 28
-0.23749581 -0.14122415 0.7446748 0.004056266 162 37
-0.25317481 -0.15281898 0.80702055 0.0038325679 175 40
-0.24941742 -0.15285735 0.8083849 0.0044581117 165 37
-0.24324402 -0.15139319 0.80174881 0.0054372353 133 30
-0.23305207 -0.1473421 0.78133053 0.0066630375 93 21
-0.22615807 -0.1452795 0.77137333 0.0085294908 78 17
-0.21788211 -0.14224729 0.75619477 0.0089267688 72 16
-0.21752693 -0.14437148 0.76838326 0.008635561 69 15
nan nan nan 0 120 27
nan nan nan 0 146 33
-0.19370048 -0.13529158 0.72236806 0.0044527501 146 33
nan nan nan 0 149 34
nan nan nan 0 83 18
nan nan nan 0 43 9
-0.21511783 -0.16153152 0.86560577 0.013392049 47 10
nan nan nan 0 51 11
-0.18319029 -0.14292254 0.7670818 0.0085917832 72 16
-0.17749643 -0.14123464 0.75857037 0.0089047225 73 16
-0.17145108 -0.13919288 0.74811643 0.0082470635 81 18
-0.16768177 -0.13895263 0.7473101 0.0063504744 98 22
-0.16589087 -0.14037634 0.75543112 0.0070256079 93 21
-0.16611713 -0.14360535 0.77325732 0.0066182693 94 21
-0.16336533 -0.14434569 0.7776705 0.0060658157 101 23
-0.15480827 -0.1398742 0.7539705 0.0051633324 131 29
-0.14845893 -0.13723692 0.74011582 0.0043520662 167 38
-0.14384127 -0.13611352 0.73439491 0.0043233624 167 38
-0.14166272 -0.1372997 0.74111509 0.0049557844 143 32
-0.13945232 -0.13851313 0.74796844 0.004848016 152 34
-0.13654335 -0.1390768 0.75129813 0.0040660664 160 36
-0.13240105 -0.13838093 0.74780542 0.0040718894 178 40
-0.1273348 -0.13665609 0.73873073 0.0037855047 184 42
-0.12329995 -0.13597359 0.73527014 0.0036378936 187 42
-0.12223642 -0.13862203 0.74980903 0.0039854199 177 40
-0.11894159 -0.13882077 0.75108695 0.0043788436 162 37
-0.11551142 -0.13886873 0.75153518 0.0045080893 162 37
-0.11209855 -0.13894114 0.7521022 0.0035315498 191 43
-0.10840971 -0.13866515 0.75077033 0.0031624499 219 50
-0.10471955 -0.13836922 0.74931747 0.0033241017 232 53
-0.10118899 -0.13827115 0.74892431 0.003059228 234 53
-0.097664207 -0.13817431 0.74852657 0.0029828183 238 54
-0.094216309 -0.13818316 0.74869102 0.0030970508 232 53
-0.090840034 -0.1383017 0.74944025 0.0033331017 219 50
-0.086984344 -0.13767083 0.74611914 0.0034154081 224 51
-0.083376072 -0.13739572 0.744717 0.0031762591 215 49
-0.079690091 -0.13696343 0.74245423 0.0035353615 214 48
-0.076307781 -0.13703765 0.74292982 0.0032308253 219 50
-0.072856098 -0.13698846 0.74272931 0.0033686555 212 48
-0.069339149 -0.13680559 0.74179775 0.0033338254 208 47
-0.065763935 -0.13648286 0.74010146 0.0034031288 202 46
-0.062476344 -0.13675438 0.74162209 0.0033149843 210 48
-0.059408851 -0.13756698 0.74607241 0.0033930789 220 50
-0.056081627 -0.13784106 0.74759758 0.0031757583 235 53
-0.052807413 -0.13828984 0.7500664 0.0030372941 245 56
-0.049622539 -0.13905185 0.75423026 0.0029334028 249 56
-0.04621461 -0.13925651 0.75536758 0.0034156819 230 52
-0.043044165 -0.14026842 0.76088053 0.0032781307 221 50
-0.039519805 -0.14020422 0.76055336 0.0032344405 215 49
-0.035931394 -0.13987817 0.75880289 0.0031855295 222 50
-0.032213632 -0.13892399 0.75364238 0.0030551478 236 54
-0.028626716 -0.13837168 0.75065947 0.0032234248 242 55
-0.025032308 -0.13762642 0.74662763 0.0029853415 238 54
-0.021365019 -0.13617907 0.73878503 0.0031077222 227 51
-0.017721079 -0.13436019 0.72892499 0.0031982483 220 50
-0.014245406 -0.13326475 0.72298807 0.0031965966 216 49
-0.010723838 -0.13094024 0.71038163 0.0032625899 212 48
-0.0073029473 -0.12834275 0.69629282 0.0035891416 190 43
-0.0040356377 -0.12648879 0.68623656 0.0043351352 171 39
-0.00087813835 -0.12711358 0.68962705 0.0042981547 151 34
0.0023141725 -0.12793605 0.69408894 0.004459512 141 32
0.0055333492 -0.12842774 0.69675517 0.0048235459 147 33
0.0087510766 -0.12853707 0.69734573 0.0046454566 142 32
0.012151173 -0.13054699 0.70824617 0.0047698622 131 29
0.015704371 -0.13300252 0.72156286 0.0062074396 118 27
nan nan nan 0 96 21
nan nan nan 0 110 25
0.02581792 -0.13372576 0.7254619 0.0060262801 102 23
0.029005291 -0.13301338 0.72158545 0.0057233642 101 23
0.032222085 -0.13256857 0.71915865 0.00452284 140 32
0.035405971 -0.13208395 0.71651387 0.0045042108 154 35
0.038641687 -0.13185887 0.71527457 0.0041288394 168 38
0.041906372 -0.13176025 0.71471858 0.0041993465 171 39
0.045036688 -0.13128431 0.71211302 0.0038270541 174 39
0.048134401 -0.13078445 0.70937455 0.003569932 184 42
0.050819155 -0.12929748 0.70127898 0.0032434578 212 48
0.053789034 -0.12867039 0.69784373 0.0032205468 228 52
0.056914791 -0.12846591 0.69669664 0.0030347414 229 52
0.060395706 -0.12904212 0.69977868 0.003191734 214 48
0.063990206 -0.12979025 0.70378751 0.0034266505 197 45
0.06792827 -0.13112943 0.71099502 0.0035744938 189 43
0.071516834 -0.13170168 0.7140376 0.0037180257 177 40
0.075096808 -0.13220845 0.71671832 0.0044727004 151 34
0.078587063 -0.1325212 0.71833986 0.0046632425 134 30
0.081431732 -0.13176401 0.71415466 0.0042263884 149 34
0.084103808 -0.13079731 0.7088272 0.0037731433 177 40
0.08647266 -0.12944904 0.70142508 0.0033789782 201 46
0.089454129 -0.12908202 0.69933254 0.003168701 217 49
0.092578545 -0.12893966 0.69844824 0.0031335764 223 51
0.095758289 -0.12888131 0.69800943 0.0030449186 234 53
0.098899424 -0.12877652 0.69730884 0.0030821403 225 51
0.10204943 -0.12868951 0.6966936 0.0034324033 223 51
0.10449797 -0.12775026 0.69145429 0.0032863137 218 49
0.1065152 -0.1263551 0.68373817 0.0033225238 220 50
0.10937379 -0.1260096 0.68169153 0.0033632012 205 46
0.11295152 -0.12648876 0.68409288 0.004077991 183 41
0.11666787 -0.12709284 0.68715405 0.0045648962 154 35
0.12034338 -0.12762161 0.6897915 0.0047795726 132 30
0.12496771 -0.12910326 0.69756007 0.0056148311 105 24
0.12959059 -0.13050885 0.70489597 0.0063333176 93 21
0.13301009 -0.13066329 0.70545357 0.0066491002 89 20
0.13549298 -0.12991229 0.70110613 0.0065018577 88 20
0.1388789 -0.13004199 0.70149434 0.0069580306 90 20
0.14280094 -0.1306563 0.7044754 0.0065327385 93 21
0.14560165 -0.1302401 0.70187932 0.0058526695 104 23
0.14807236 -0.12955338 0.69780737 0.0058883666 103 23
0.15033323 -0.12871639 0.6929087 0.0061188876 101 23
0.15390219 -0.12901101 0.69408107 0.0057205935 115 26
0.1569733 -0.12888478 0.69296527 0.0055448171 109 24
0.15965807 -0.12845278 0.69018346 0.0050367722 121 27
0.16175871 -0.12757711 0.68499774 0.0049168156 133 30
0.16282916 -0.12593853 0.67569995 0.0041973339 153 35
nan nan nan 0 147 33
0.1675203 -0.1247434 0.66821957 0.0053197765 121 27
nan nan nan 0 101 23
0.18057314 -0.12963706 0.69320989 0.0067848954 87 19
0.18406352 -0.1298133 0.69349456 0.0069483402 84 19
0.18916066 -0.13109696 0.69965661 0.007127401 85 19
0.19406332 -0.13220443 0.70483309 0.009057207 75 17
0.20180613 -0.13517724 0.71989769 0.0072169406 79 18
nan nan nan 0 126 28
nan nan nan 0 214 48
nan nan nan 0 260 59
nan nan nan 0 267 61
nan nan nan 0 235 53
0.24723561 -0.15048908 0.79535413 0.0035082405 229 52
0.25365007 -0.15207955 0.80258441 0.0032214744 224 51
0.2573176 -0.15200041 0.80094695 0.0034778838 218 49
0.26163241 -0.15230034 0.80126005 0.0035107639 200 45
0.26368192 -0.15129195 0.79465061 0.004247427 154 35
nan nan nan 0 125 28
0.25279018 -0.14099815 0.73802483 0.0050922455 124 28
0.25816506 -0.14201604 0.74200046 0.0087061869 73 16
0.255144 -0.13845037 0.72201127 0.011943075 48 10
0.25754371 -0.13788228 0.71765447 0.0099121761 64 14
0.26219106 -0.13851662 0.71951598 0.0065833582 95 21
0.27540413 -0.14360076 0.7443924 0.0062495298 107 24
0.27943179 -0.14382626 0.74398768 0.0050147353 135 30
0.28199705 -0.14330287 0.73967624 0.0036438738 177 40
nan nan nan 0 186 42
0.28310034 -0.14029919 0.72093546 0.0043234583 159 36
nan nan nan 0 133 30
nan nan nan 0 153 35
nan nan nan 0 209 47
nan nan nan 0 175 40
0.3063418 -0.14296219 0.7259841 0.003757068 182 41
0.31263837 -0.14421828 0.73059636 0.004459776 156 35
0.30098683 -0.13726075 0.69367713 0.0044857678 148 33
nan nan nan 0 159 36
0.30182341 -0.13457413 0.67687488 0.0042069773 170 38
nan nan nan 0 174 39
0.2902796 -0.12660497 0.63388467 0.002730136 266 60
0.29072911 -0.12543352 0.62664855 0.0023115724 327 74
0.29855964 -0.12743756 0.63532764 0.0031383249 233 53
nan nan nan 0 248 56
0.32087922 -0.13410281 0.66597956 0.0043643387 157 35
0.32060295 -0.13260208 0.65738434 0.0042702141 159 36
0.31892326 -0.13055758 0.646222 0.0049399715 123 28
0.32320771 -0.13097127 0.64734608 0.0055866488 104 23
0.3346709 -0.13425651 0.66275287 0.0068699638 92 21
0.34488463 -0.13698025 0.67547494 0.0074197706 89 20
0.35097879 -0.13803032 0.68005401 0.0066528656 91 20
0.36933771 -0.14383638 0.70817494 0.0080629103 84 19
0.36468032 -0.14065336 0.69216824 0.0094366604 62 14
0.3340416 -0.12760606 0.62778443 0.0093588792 66 15
-0.35061967 -0.11562713 0.59153038 0.0077518634 68 15
-0.40134665 -0.13348445 0.68150508 0.0036968789 184 42
-0.40180701 -0.13478686 0.6868552 0.0047389963 147 33
-0.3953959 -0.13378683 0.68056774 0.008397771 76 17
-0.38909534 -0.13280705 0.67450315 0.009115696 64 14
-0.3802202 -0.13092345 0.66397709 0.0094682975 70 16
-0.37990549 -0.13198018 0.66847986 0.0089079877 68 15
-0.37307876 -0.13077331 0.66163272 0.009169383 62 14
-0.36899686 -0.13051538 0.65971321 0.0078032049 74 16
-0.37833938 -0.13504446 0.68209696 0.0078355744 81 18
-0.37239614 -0.13415071 0.67720628 0.0061063678 96 21
-0.36965564 -0.13440481 0.67824489 0.0061677941 100 22
-0.36767444 -0.13494235 0.68084848 0.0074536451 75 17
-0.36452872 -0.13505864 0.68146431 0.0074728988 72 16
-0.36311105 -0.13582355 0.68549317 0.0071540293 88 20
-0.36594242 -0.13820805 0.6978423 0.0073111691 83 18
-0.35969338 -0.13717617 0.69308478 0.0073660864 77 17
-0.34943593 -0.13458014 0.68054777 0.0078547848 83 18
nan nan nan 0 75 17
-0.35055989 -0.13773295 0.6980772 0.0088061588 69 15
-0.3490212 -0.13852376 0.70307297 0.0081649115 81 18
-0.345121 -0.13838391 0.70346725 0.0058646244 103 23
-0.34232655 -0.13868913 0.70623451 0.0058835479 103 23
nan nan nan 0 147 33
nan nan nan 0 157 35
nan nan nan 0 375 85
-0.32410958 -0.13700072 0.70332658 0.0063496102 97 22
-0.32676315 -0.13963562 0.71847641 0.0047720638 126 28
nan nan nan 0 119 27
nan nan nan 0 115 26
nan nan nan 0 127 29
-0.28845549 -0.12891507 0.6696552 0.0042667249 139 31
-0.28386134 -0.12833229 0.66824806 0.0034871907 177 40
-0.27589551 -0.12619363 0.65870625 0.0035865873 208 47
nan nan nan 0 208 47
nan nan nan 0 318 72
nan nan nan 0 191 43
-0.27409175 -0.13153858 0.69314426 0.0044067134 149 34
nan nan nan 0 131 29
nan nan nan 0 139 31
-0.28453463 -0.1417836 0.75214988 0.0054756082 118 27
-0.28051656 -0.14159025 0.75272506 0.0052607222 120 27
-0.25309804 -0.12942563 0.68948323 0.0039919931 151 34
nan nan nan 0 173 39
-0.26724651 -0.14034046 0.75060427 0.0063168183 109 24
-0.26535001 -0.14124618 0.75688201 0.0069421432 94 21
-0.25570676 -0.13799629 0.74082524 0.0069850115 84 19
-0.25250879 -0.13818231 0.743141 0.010648013 64 14
-0.24838941 -0.13786222 0.74269074 0.014374249 38 8
-0.24766688 -0.13944544 0.75246233 0.0097658373 59 13
-0.23719765 -0.13550693 0.73237497 0.0062239184 95 21
-0.23308113 -0.13513444 0.73148245 0.0045332122 145 33
nan nan nan 0 162 37
-0.24863994 -0.14857182 0.80654764 0.0042137471 179 40
-0.2443143 -0.14825831 0.8059414 0.0046160193 154 35
-0.23798981 -0.14670277 0.79852682 0.0058648968 121 27
-0.22784267 -0.14270307 0.77772796 0.006810789 95 21
-0.2198192 -0.13992462 0.7634995 0.0088162674 76 17
-0.21435297 -0.13870876 0.75773329 0.0083862785 74 16
nan nan nan 0 86 19
-0.21693106 -0.14519469 0.79486591 0.004676003 135 30
nan nan nan 0 140 32
nan nan nan 0 165 37
nan nan nan 0 176 40
nan nan nan 0 86 19
nan nan nan 0 44 10
nan nan nan 0 45 10
nan nan nan 0 51 11
nan nan nan 0 58 13
-0.17301208 -0.13694912 0.75532603 0.0075894892 78 17
-0.16936418 -0.13683857 0.75519294 0.0078473827 82 18
nan nan nan 0 75 17
-0.16733587 -0.14104293 0.77930039 0.0074274247 80 18
-0.16230625 -0.13982512 0.77298278 0.0058991499 109 24
-0.15409739 -0.13575156 0.75083971 0.0049550612 128 29
-0.148012 -0.13340363 0.73820156 0.0047909021 139 31
-0.14576094 -0.13448226 0.74450052 0.0050718812 138 31
-0.14342649 -0.13553438 0.75063771 0.0055292491 124 28
-0.14116678 -0.13671108 0.75745028 0.0053305863 135 30
-0.13786118 -0.13690907 0.75882465 0.0042345966 155 35
-0.13368742 -0.1362327 0.75533402 0.0041267364 167 38
-0.1292998 -0.13529624 0.75038123 0.0038890406 169 38
-0.12553507 -0.13497794 0.74883831 0.0040211254 167 38
-0.12287399 -0.13586189 0.75395066 0.0046899416 159 36
-0.11942782 -0.13590398 0.75437814 0.0042024702 152 34
-0.1156927 -0.13560995 0.75292504 0.0040436168 160 36
-0.11214925 -0.13552931 0.75264311 0.0034899064 190 43
-0.10852893 -0.13534765 0.75178725 0.0035612744 224 51
-0.10484651 -0.13507397 0.7504077 0.0030204032 232 53
-0.10118391 -0.13480802 0.74905914 0.0030249509 235 53
-0.097743191 -0.13482933 0.74929601 0.0031009244 239 54
-0.094326243 -0.13488621 0.74972057 0.0030337044 239 54
-0.090572216 -0.13444702 0.74737811 0.0031087201 224 51
-0.08700157 -0.13425606 0.7464065 0.0031293773 224 51
-0.083291955 -0.13382611 0.74409735 0.0031470093 217 49
-0.079861157 -0.13382642 0.74417269 0.0032311259 216 49
-0.076438814 -0.13384159 0.74432343 0.0032434803 215 49
-0.073085107 -0.133984 0.74517518 0.0034864077 208 47
-0.069641091 -0.13396673 0.74513286 0.0035232941 198 45
-0.066094637 -0.13374037 0.74392194 0.0034485469 197 45
-0.062806591 -0.13404074 0.74563557 0.0036583671 203 46
-0.059507862 -0.13435179 0.7474038 0.0034620138 218 49
-0.056158587 -0.13457991 0.74870652 0.0030936683 234 53
-0.052916374 -0.13511124 0.75169241 0.0031876245 243 55
-0.049497269 -0.13523373 0.75240004 0.0030940801 240 54
-0.046204224 -0.13574503 0.75526768 0.0033536183 228 52
-0.042911049 -0.13633922 0.7585935 0.003235382 216 49
-0.039524764 -0.13671669 0.76071107 0.0033154564 215 49
-0.03587592 -0.1361711 0.75769007 0.0034029856 229 52
-0.032299537 -0.13581254 0.7557075 0.0029358272 242 55
-0.028707843 -0.13529517 0.75283927 0.0029199808 240 54
-0.02509973 -0.13454759 0.74868822 0.0031939172 239 54
-0.021569021 -0.13404283 0.74588668 0.003019898 236 54
-0.018012499 -0.13315591 0.74095732 0.0031449506 222 50
-0.014308961 -0.13051325 0.72625649 0.0032615347 212 48
-0.010877294 -0.12949407 0.72058856 0.0036118135 196 44
-0.0074290652 -0.12729558 0.70835716 0.0040069572 164 37
-0.004101235 -0.12533158 0.69742966 0.0045022019 143 32
-0.0009052594 -0.12776388 0.71096522 0.0051104869 125 28
0.0023760283 -0.1280722 0.71268076 0.0048700343 128 29
0.0056514828 -0.12789077 0.71167016 0.0051257932 124 28
0.0089025386 -0.12749313 0.70945555 0.0047646631 130 29
0.012323238 -0.12908611 0.71831697 0.0050144498 119 27
0.015819225 -0.13062628 0.72688371 0.0056800474 111 25
nan nan nan 0 94 21
0.023026658 -0.13358216 0.74332023 0.006631474 106 24
0.026063586 -0.13162369 0.7324146 0.0065947692 93 21
0.029087123 -0.13005437 0.72367287 0.0055463826 110 25
0.032232735 -0.12929749 0.71945041 0.0048856535 143 32
0.035488579 -0.12908275 0.71824265 0.0044756066 158 36
0.038824014 -0.12916942 0.71870995 0.003989914 166 37
0.042108536 -0.12908642 0.71823072 0.0041371817 160 36
0.045281995 -0.12869982 0.71605968 0.0039889221 163 37
0.047963429 -0.12706232 0.70692605 0.0037797911 174 39
0.050736427 -0.12586021 0.70021218 0.0035359068 198 45
0.054198712 -0.12640953 0.70323879 0.0031925847 215 49
0.056750912 -0.12489402 0.69477463 0.0034432497 218 49
0.06064672 -0.12633939 0.70277733 0.0033661118 199 45
0.064354084 -0.12726551 0.70788604 0.0035743802 186 42
0.067961551 -0.12791423 0.71144629 0.0037146853 171 39
0.071770206 -0.12886448 0.71667707 0.0039354465 164 37
0.075386435 -0.1294008 0.71959931 0.005183564 132 30
0.078812435 -0.12957913 0.7205236 0.0051973406 127 29
0.081472307 -0.12853438 0.71464026 0.0043666726 142 32
0.08395803 -0.12730676 0.70773411 0.0039168526 165 37
0.086622715 -0.12643223 0.70278418 0.003722003 184 42
0.089489765 -0.12590551 0.69976014 0.0035066954 205 46
0.092584811 -0.12572508 0.69865203 0.0033760245 216 49
0.095700249 -0.12558353 0.69775087 0.0031621675 219 50
0.098755978 -0.12537542 0.69646996 0.0031285752 220 50
0.10057594 -0.12366097 0.68681258 0.0031958397 217 49
0.10327276 -0.12309652 0.68353349 0.0036115814 215 49
0.10615822 -0.12278372 0.68164104 0.0034014583 200 45
0.10977922 -0.12331518 0.68442291 0.0041858801 165 37
0.11388368 -0.12434474 0.68995392 0.0045366893 145 33
0.11736905 -0.12466066 0.69150943 0.0049902978 125 28
0.12201141 -0.12615617 0.69959044 0.0056542051 103 23
0.12538424 -0.12629564 0.7001335 0.0065025715 90 20
0.12853852 -0.12621351 0.69943172 0.0064922534 87 19
0.13311566 -0.12749824 0.7062853 0.0063524446 91 20
0.13597131 -0.12711203 0.70386291 0.006751636 92 21
0.13872457 -0.12665044 0.70100647 0.0060019679 99 22
0.14203656 -0.1267084 0.70100749 0.0063737314 103 23
0.14537361 -0.12678565 0.70109475 0.0058317017 108 24
0.14745858 -0.12579137 0.69523847 0.0055526048 108 24
0.15047163 -0.12561443 0.69388151 0.0062777135 109 24
0.15382478 -0.12572287 0.69407886 0.0052713174 112 25
0.15734859 -0.12596349 0.69498175 0.0046872706 134 30
nan nan nan 0 174 39
0.15455364 -0.11884759 0.65484905 0.0027315239 262 59
0.15668623 -0.11815805 0.65058064 0.002258189 343 78
0.15970314 -0.11814888 0.65003628 0.0023464172 340 77
0.16402747 -0.11908929 0.65468639 0.0023937116 323 73
0.16700274 -0.11903376 0.65383101 0.0027061887 271 62
nan nan nan 0 203 46
0.17826781 -0.12258305 0.67210752 0.004692765 147 33
0.18685761 -0.12626374 0.69161469 0.0060894308 102 23
0.19320461 -0.1283294 0.70221239 0.0075967005 86 19
0.19743207 -0.12894157 0.70480865 0.0045312881 134 30
0.19538213 -0.12550139 0.68523759 0.0033624319 200 45
0.19947727 -0.12605599 0.68746126 0.0030432134 239 54
0.20364423 -0.12663752 0.68978971 0.0026184588 278 63
nan nan nan 0 300 68
nan nan nan 0 266 60
nan nan nan 0 237 54
0.25349587 -0.14818789 0.80280054 0.0033347062 211 48
0.2574985 -0.14830506 0.8022306 0.0036182012 198 45
0.25935528 -0.1472009 0.79501694 0.0040937699 169 38
0.26121461 -0.14612986 0.78795546 0.0055189207 123 28
0.25610211 -0.14124404 0.76033217 0.0064346036 111 25
0.25472909 -0.13852806 0.7444151 0.0073291259 94 21
0.25410566 -0.13628884 0.73106408 0.013950888 50 11
0.25274619 -0.13372093 0.7159552 0.010546961 53 12
0.25786501 -0.13460337 0.7192955 0.0071848291 81 18
0.27096817 -0.13957523 0.74438697 0.0061931051 97 22
0.27587819 -0.14025222 0.746472 0.0063297739 96 21
nan nan nan 0 135 30
nan nan nan 0 262 59
nan nan nan 0 211 48
nan nan nan 0 169 38
nan nan nan 0 136 31
0.28428072 -0.13404152 0.70395553 0.0045670546 148 33
nan nan nan 0 165 37
0.29205626 -0.13445701 0.70277661 0.0042987489 167 38
nan nan nan 0 173 39
nan nan nan 0 231 52
nan nan nan 0 262 59
0.28758281 -0.12642854 0.65444607 0.0036198176 195 44
nan nan nan 0 201 46
nan nan nan 0 239 54
0.28839818 -0.12264019 0.63038546 0.0023975782 320 73
0.28678083 -0.12063719 0.61870921 0.0025767738 317 72
0.3057192 -0.12723163 0.65113157 0.0038756682 165 37
0.31024048 -0.1277502 0.65244901 0.0047247638 153 35
nan nan nan 0 143 32
nan nan nan 0 116 26
0.31819177 -0.12700209 0.64514244 0.0048793885 128 29
0.32199493 -0.12721825 0.64527285 0.0065222601 106 24
0.32722136 -0.12798677 0.64830905 0.0064659705 99 22
nan nan nan 0 103 23
nan nan nan 0 88 20
0.3688972 -0.14007366 0.7075001 0.0084520439 67 15
0.3707433 -0.13941745 0.70378911 0.0088711353 65 14
0.36118612 -0.13452651 0.67885488 0.0092227301 71 16
-0.35315549 -0.11347756 0.59540725 0.0093884012 58 13
-0.40926498 -0.13262828 0.69450855 0.0045188339 123 28
-0.40442538 -0.13218708 0.69091922 0.006426686 100 22
-0.39884865 -0.13149519 0.68613178 0.007206772 79 18
-0.37804812 -0.1257282 0.65502179 0.0089701833 64 14
-0.38440514 -0.12897097 0.67098022 0.006365187 103 23
-0.38202044 -0.12931243 0.67193204 0.0077565103 79 18
-0.37145647 -0.12686652 0.65852964 0.0079486622 74 16
-0.37599319 -0.12958048 0.67203206 0.0089163408 73 16
-0.3766112 -0.13098121 0.67883325 0.0070574568 81 18
-0.37470463 -0.13152169 0.68130147 0.0062416415 95 21
-0.37094504 -0.1314158 0.6805557 0.0061976928 97 22
-0.3690941 -0.13199043 0.68347186 0.0075021088 80 18
nan nan nan 0 64 14
nan nan nan 0 87 19
nan nan nan 0 79 18
nan nan nan 0 130 29
-0.35135689 -0.1318507 0.68454605 0.0065344055 104 23
-0.35308301 -0.13381977 0.69554842 0.0080441814 77 17
-0.35213485 -0.13480473 0.70158237 0.0088164359 65 14
-0.35182279 -0.13605575 0.70914024 0.006771571 82 18
-0.34840497 -0.1361191 0.71063417 0.0052066017 116 26
-0.33873516 -0.13371576 0.69933569 0.0054602628 107 24
-0.32517523 -0.12971026 0.67969102 0.0060018762 101 23
nan nan nan 0 101 23
nan nan nan 0 152 34
-0.32390293 -0.13340326 0.7035374 0.007139435 83 18
-0.3218874 -0.13402556 0.7084465 0.0060168416 94 21
nan nan nan 0 164 37
nan nan nan 0 192 43
nan nan nan 0 400 91
nan nan nan 0 143 32
-0.30796927 -0.1356618 0.72578877 0.0046920334 135 30
nan nan nan 0 124 28
nan nan nan 0 113 25
nan nan nan 0 137 31
-0.28028014 -0.12946706 0.69932044 0.0047638793 130 29
-0.2685765 -0.12558731 0.67993677 0.003897893 158 36
nan nan nan 0 157 35
nan nan nan 0 216 49
nan nan nan 0 323 73
nan nan nan 0 117 26
nan nan nan 0 154 35
nan nan nan 0 139 31
-0.26501116 -0.1355987 0.74506599 0.0051285801 121 27
-0.2632513 -0.13653645 0.7516284 0.0066216644 96 21
-0.25919351 -0.13629183 0.75164527 0.0066863392 87 19
-0.25116792 -0.13392468 0.73988736 0.0077991202 74 16
-0.24869442 -0.13449273 0.74428463 0.012313965 55 12
-0.24288848 -0.13324896 0.73860615 0.013275839 39 8
-0.237097 -0.13197683 0.73270535 0.0081198262 68 15
-0.2327518 -0.13148388 0.73107356 0.0055487258 101 23
-0.22985066 -0.13180414 0.73392034 0.0047622458 150 34
-0.24839313 -0.14461909 0.80640233 0.0044883918 167 38
-0.24421418 -0.14439812 0.80624938 0.0039964528 175 40
-0.23987728 -0.14407532 0.80548078 0.0048582051 144 32
-0.22734962 -0.13874364 0.77662772 0.0055271615 118 27
-0.22124834 -0.13722368 0.76902455 0.0072486592 94 21
-0.21582583 -0.13608128 0.76348144 0.0076694307 79 18
-0.20950022 -0.1343213 0.75441831 0.0066190395 91 20
-0.21289483 -0.13884002 0.78059894 0.0060550072 112 25
-0.21206962 -0.14071651 0.79192442 0.0048449817 143 32
nan nan nan 0 136 31
-0.18269061 -0.12560841 0.70818853 0.0039297803 168 38
-0.17986152 -0.12594169 0.71066821 0.0052255392 136 31
nan nan nan 0 77 17
nan nan nan 0 42 9
nan nan nan 0 46 10
nan nan nan 0 55 12
nan nan nan 0 57 13
nan nan nan 0 53 12
-0.1757016 -0.14124519 0.8008737 0.0110863 55 12
-0.16965543 -0.13933189 0.79045749 0.0081563899 79 18
-0.16027617 -0.13453628 0.76364458 0.0054261824 112 25
-0.15452921 -0.13264187 0.7532571 0.005085398 123 28
-0.14743951 -0.12948073 0.73564076 0.0047834544 131 29
-0.14673296 -0.13190827 0.74975353 0.0052526682 124 28
-0.1450392 -0.13354449 0.75935823 0.0052492036 114 26
-0.14287369 -0.13481681 0.76688063 0.0048901476 132 30
-0.1390657 -0.13456456 0.76571447 0.0047119912 134 30
-0.13492985 -0.13397364 0.76260144 0.0046478407 145 33
-0.13123907 -0.13380477 0.76187235 0.0043486455 149 34
-0.12755218 -0.13363066 0.76109666 0.0044262814 145 33
-0.12399526 -0.1335867 0.76104659 0.0043628258 149 34
-0.12001197 -0.13306744 0.75827307 0.0042262604 149 34
-0.11577825 -0.13223095 0.75367612 0.0040190266 160 36
-0.112067 -0.13195783 0.75227559 0.0035234739 195 44
-0.10848733 -0.13182712 0.75167412 0.0034410637 214 48
-0.1047999 -0.1315525 0.75024003 0.0030214917 231 52
-0.10132147 -0.13153045 0.75023484 0.0029663183 240 54
-0.09785407 -0.13152167 0.75029492 0.0032471346 240 54
-0.094052166 -0.13104618 0.74768245 0.0033594496 232 53
-0.09050364 -0.13090093 0.74694461 0.0030670143 229 52
-0.086937547 -0.13071781 0.74598181 0.0031707801 218 49
-0.083441459 -0.13062918 0.74555016 0.003355287 222 50
-0.079988994 -0.13060418 0.74547416 0.0034943384 214 48
-0.076616466 -0.13071328 0.74615675 0.0032998945 207 47
-0.073249243 -0.13084216 0.74694586 0.003285493 209 47
-0.069804423 -0.13083826 0.74697137 0.0034250244 200 45
-0.066436313 -0.13098525 0.74785268 0.0034774195 193 44
-0.063069724 -0.13115145 0.7488389 0.0033818996 199 45
-0.05964997 -0.13121994 0.74926281 0.0034834105 211 48
-0.056171853 -0.13116057 0.74895239 0.0030517692 227 51
-0.052752059 -0.13123852 0.74942243 0.0031501995 239 54
-0.04959226 -0.13201953 0.75390399 0.0029866286 239 54
-0.046119571 -0.13202253 0.75393957 0.0030258147 232 53
-0.0427837 -0.13244955 0.75639421 0.0032180999 222 50
-0.039482001 -0.13306749 0.75993669 0.0032569403 211 48
-0.035949107 -0.13295066 0.75928086 0.0034546757 214 48
-0.032329217 -0.13245223 0.75644392 0.0032863438 235 53
-0.028770057 -0.13211223 0.75450993 0.0029534746 242 55
-0.025200676 -0.13162537 0.75173569 0.0029335804 242 55
-0.021618009 -0.13090293 0.74761498 0.0032914125 229 52
-0.018111272 -0.13045356 0.74505246 0.0031896215 226 51
-0.014444253 -0.12836958 0.73315358 0.003254466 212 48
-0.011002984 -0.12763211 0.72894406 0.0036647615 185 42
-0.0075193294 -0.12553905 0.71699148 0.0049221353 146 33
nan nan nan 0 121 27
-0.00091458851 -0.12577122 0.71831894 0.0056774816 104 23
0.002390733 -0.12556103 0.71711838 0.0057569481 117 26
0.0056777112 -0.12519027 0.71500009 0.0053343652 122 27
0.0089827171 -0.12534331 0.715873 0.0051865107 121 27
0.01238451 -0.12640201 0.72191769 0.0056442125 120 27
0.015832545 -0.12738453 0.72752625 0.0059731416 103 23
0.02015741 -0.13384587 0.7644251 0.0075913579 87 19
0.023183491 -0.13104393 0.74841803 0.0059378482 98 22
0.026248023 -0.12915672 0.7376343 0.007240349 87 19
0.029202906 -0.12722449 0.72659218 0.0059804637 112 25
0.032295987 -0.12622982 0.7209034 0.0044402624 138 31
0.03560134 -0.126173 0.72056907 0.0041513983 152 34
0.038953401 -0.12627728 0.7211529 0.004112266 155 35
0.042211331 -0.126084 0.7200352 0.0044321842 149 34
0.04534309 -0.12556946 0.71708065 0.0048342082 148 33
0.048592649 -0.12542889 0.716259 0.0043374137 147 33
0.051387131 -0.12420627 0.70925552 0.0040075267 159 36
0.054587055 -0.12405124 0.70834506 0.0038478256 170 38
0.05783036 -0.12400671 0.70806205 0.0038139964 168 38
0.061443258 -0.12471713 0.71208549 0.0038705256 168 38
0.064769551 -0.12480328 0.71253979 0.0039379075 166 37
0.068204723 -0.12508078 0.71408153 0.0041681607 163 37
0.071724541 -0.12548082 0.71631718 0.0043480503 143 32
0.075615495 -0.12646638 0.72188878 0.0052797897 121 27
0.078739353 -0.12613995 0.71996492 0.0050714449 118 27
0.081516452 -0.1253069 0.71514302 0.0044526863 140 32
0.084059738 -0.12419319 0.70871311 0.0042513767 162 37
0.086728074 -0.12334064 0.70376694 0.0036251899 193 44
0.089307643 -0.12242795 0.69847053 0.0033799405 201 46
0.092311695 -0.12214043 0.69673282 0.0033453091 209 47
0.095584586 -0.12221597 0.69705713 0.0031670732 218 49
0.097416893 -0.12050463 0.68718165 0.0034836147 213 48
0.10025345 -0.12010427 0.68477356 0.0038039689 206 47
0.10305002 -0.11968192 0.68223023 0.0036716647 180 41
0.10677871 -0.12033511 0.68580592 0.0042954613 162 37
0.11077491 -0.12124345 0.69082141 0.004933598 139 31
0.11440214 -0.12170841 0.6932956 0.0052186861 120 27
0.11840297 -0.12253466 0.6978125 0.006213774 103 23
0.12256265 -0.12347718 0.70297408 0.0074276426 87 19
0.1256178 -0.12328696 0.70167023 0.006989338 81 18
0.12886032 -0.12328557 0.70142549 0.007473419 88 20
0.13286033 -0.12399119 0.70518488 0.0063993158 93 21
0.13613689 -0.12400401 0.70498502 0.0063757701 102 23
0.1386624 -0.12334812 0.70096672 0.0064648651 104 23
0.14163905 -0.12311438 0.69933039 0.0055749803 114 26
0.14466362 -0.12293181 0.69796592 0.0055754008 115 26
0.14745702 -0.12256508 0.69553685 0.005526749 113 25
0.14983405 -0.12187538 0.69125676 0.0052812127 117 26
0.15315945 -0.1219698 0.69140399 0.0046054004 135 30
nan nan nan 0 205 46
0.14995654 -0.11461583 0.64892179 0.0022231967 347 79
0.15161216 -0.11359669 0.64272386 0.0021082717 418 95
0.1545532 -0.11356148 0.64207339 0.0019649854 422 96
0.15827575 -0.11409091 0.64458883 0.0019776197 427 97
0.16150469 -0.11425146 0.64499193 0.0019469943 428 97
0.16427936 -0.11409066 0.64355481 0.0020367228 403 92
0.1672347 -0.11405886 0.64281923 0.0022038566 358 81
0.17430408 -0.11678461 0.65758342 0.0026610747 310 70
nan nan nan 0 258 59
nan nan nan 0 227 51
0.18858902 -0.12000856 0.67371029 0.0032394491 223 51
0.19398952 -0.12141225 0.68084246 0.0029899308 232 53
0.19748314 -0.12159635 0.68109202 0.0031425727 245 56
0.20255847 -0.12273297 0.68663353 0.0027243297 261 59
0.20662951 -0.12323494 0.68857759 0.0025197223 298 68
nan nan nan 0 285 65
nan nan nan 0 237 54
0.24830332 -0.14143109 0.78701943 0.0037096159 206 47
0.25549987 -0.14338128 0.79669189 0.0041440981 173 39
0.25754797 -0.14242755 0.79017556 0.0050432109 129 29
nan nan nan 0 114 26
0.24577288 -0.1320722 0.73034173 0.0060024224 107 24
0.25432017 -0.13475987 0.74392331 0.010629947 57 13
0.24638359 -0.12875919 0.70953196 0.013660555 46 10
0.25403163 -0.13095529 0.72030461 0.0096545881 63 14
0.26118097 -0.13283899 0.72927529 0.0078400569 91 20
0.27114862 -0.13608743 0.74564201 0.0063962978 100 22
0.2734997 -0.1354783 0.74080282 0.0059400904 108 24
0.26049158 -0.12737453 0.69504112 0.0041590757 154 35
0.25911853 -0.12509368 0.68113601 0.003509182 188 43
0.26395535 -0.12583035 0.68364543 0.0035124051 185 42
nan nan nan 0 169 38
0.2676304 -0.12446 0.67313927 0.0030789815 222 50
0.26996142 -0.12402639 0.66923028 0.0031337703 225 51
0.27421492 -0.12447584 0.67006505 0.0032822157 206 47
nan nan nan 0 167 38
nan nan nan 0 208 47
0.28072685 -0.12302363 0.65745729 0.002923649 235 53
0.27825713 -0.12055125 0.64267468 0.0032580835 230 52
0.29238421 -0.1252439 0.66606981 0.0038732581 165 37
0.30184072 -0.1278536 0.67831028 0.0043062908 151 34
nan nan nan 0 156 35
0.29619977 -0.12272851 0.64805949 0.002943272 229 52
0.29257035 -0.11991733 0.63177973 0.0029098755 248 56
0.29472467 -0.11951141 0.6282627 0.0032590108 204 46
nan nan nan 0 169 38
nan nan nan 0 133 30
nan nan nan 0 94 21
nan nan nan 0 119 27
0.32103005 -0.12358522 0.6437034 0.0046835141 132 30
0.32750893 -0.12481508 0.64919871 0.0047577675 130 29
nan nan nan 0 113 25
0.35355026 -0.13209042 0.68548924 0.0080565559 83 18
0.36462483 -0.13490185 0.69949061 0.010354491 59 13
0.36557895 -0.13395086 0.69411457 0.0081443638 69 15
0.36999887 -0.13427579 0.69549429 0.0090654371 73 16
-0.3882004 -0.12145621 0.65406978 0.0095840283 62 14
-0.40920967 -0.12912107 0.69399285 0.010182796 53 12
-0.4066529 -0.12941784 0.69433087 0.0092723398 72 16
-0.40167615 -0.12894291 0.69063443 0.0077951406 75 17
nan nan nan 0 62 14
nan nan nan 0 85 19
nan nan nan 0 65 14
nan nan nan 0 123 28
-0.37292275 -0.12514058 0.66637474 0.0058870548 111 25
-0.36874872 -0.12487227 0.66453499 0.0086618885 77 17
-0.37912717 -0.12957253 0.6892578 0.0057288515 124 28
-0.37370053 -0.12890844 0.68557429 0.0061587445 97 22
-0.37439972 -0.13036487 0.69330907 0.0073639783 84 19
-0.36045802 -0.12670262 0.67396134 0.008831867 73 16
-0.36367768 -0.12906025 0.68677574 0.0079918643 69 15
nan nan nan 0 77 17
nan nan nan 0 89 20
-0.35332376 -0.12910007 0.68864924 0.0062482888 106 24
-0.34835929 -0.12855546 0.68656409 0.0066353809 90 20
-0.3536835 -0.13183497 0.70504808 0.0077371877 70 16
nan nan nan 0 93 21
-0.34775633 -0.13229072 0.70978892 0.00557253 109 24
-0.33866194 -0.13016926 0.69969845 0.006602278 91 20
-0.33121279 -0.12864226 0.69285882 0.0065120733 110 25
-0.32470879 -0.12745385 0.68789464 0.0066086929 86 19
nan nan nan 0 83 18
-0.32762763 -0.1313868 0.71228904 0.0067238263 101 23
-0.32305315 -0.13097164 0.71169788 0.0052651176 133 30
-0.31758848 -0.13018243 0.70909804 0.0052463245 118 27
nan nan nan 0 114 26
nan nan nan 0 235 53
nan nan nan 0 130 29
nan nan nan 0 101 23
nan nan nan 0 171 39
nan nan nan 0 189 43
nan nan nan 0 292 66
nan nan nan 0 109 24
nan nan nan 0 124 28
nan nan nan 0 121 27
nan nan nan 0 121 27
nan nan nan 0 125 28
nan nan nan 0 99 22
nan nan nan 0 146 33
nan nan nan 0 205 46
nan nan nan 0 151 34
nan nan nan 0 247 56
-0.2573199 -0.13174641 0.74689978 0.0068815988 88 20
-0.25076714 -0.13019274 0.73937327 0.0071608489 89 20
-0.24770303 -0.13043188 0.74197173 0.0086927703 71 16
-0.24171564 -0.12911639 0.73567337 0.014652962 43 9
-0.23862845 -0.12933426 0.73805887 0.012324809 45 10
-0.23728637 -0.13051848 0.7459287 0.0077986345 71 16
nan nan nan 0 127 29
nan nan nan 0 147 33
-0.24471009 -0.14088419 0.80850041 0.004062973 169 38
-0.24066992 -0.14074792 0.80873984 0.0041395999 163 37
-0.22896937 -0.13605542 0.78272313 0.0047639832 139 31
-0.22346233 -0.13495004 0.77726281 0.0062172492 112 25
-0.21670431 -0.13303998 0.76710945 0.0062603615 97 22
-0.2116825 -0.13214938 0.76277936 0.0070727156 97 22
-0.20447759 -0.12984192 0.75021583 0.0059454241 103 23
-0.20810843 -0.1344547 0.7776143 0.0049558203 134 30
nan nan nan 0 152 34
-0.18552376 -0.12420005 0.71958971 0.0043684938 142 32
-0.18066835 -0.12317797 0.71425837 0.0042810556 153 35
-0.17652017 -0.12260874 0.71151608 0.0044298526 145 33
nan nan nan 0 58 13
nan nan nan 0 41 9
-0.20129222 -0.14815789 0.86160553 0.015058557 45 10
-0.19752918 -0.14833866 0.8632021 0.014632666 43 9
-0.19041736 -0.14595996 0.84986717 0.014736527 44 10
nan nan nan 0 55 12
nan nan nan 0 88 20
-0.15953979 -0.13039447 0.76044589 0.006582885 111 25
-0.15322174 -0.128059 0.74717641 0.0051317331 126 28
-0.14940953 -0.12775834 0.74575043 0.0054924116 121 27
-0.14749089 -0.1291009 0.75389832 0.0056492528 114 26
-0.1483483 -0.1329973 0.77695179 0.0058766855 104 23
-0.1460178 -0.13415821 0.78401637 0.0055366075 119 27
-0.14131311 -0.13314131 0.77833551 0.0050443113 127 29
-0.13587016 -0.13135757 0.7681483 0.0046968218 137 31
-0.13198142 -0.13102101 0.76640326 0.0045792954 138 31
-0.12823512 -0.13081118 0.76538259 0.0048551722 145 33
-0.12444668 -0.13054527 0.76401752 0.0046006278 150 34
-0.12055437 -0.13015172 0.76189005 0.004349737 149 34
-0.11591463 -0.12890331 0.7547425 0.0045776777 157 35
-0.11205646 -0.12847362 0.75237375 0.0035997888 183 41
-0.10828111 -0.12811445 0.75040489 0.0032531223 215 49
-0.10479514 -0.12808524 0.75035673 0.0031086509 231 52
-0.10138174 -0.12814575 0.75082362 0.0031890711 247 56
-0.097774409 -0.12795679 0.74981833 0.0030778537 248 56
-0.094097033 -0.1276589 0.74816489 0.0029900961 237 54
-0.090442389 -0.12737039 0.74655706 0.0034072693 228 52
-0.087013237 -0.12738913 0.74674177 0.0031202554 229 52
-0.083760448 -0.12767828 0.74850398 0.0031690034 223 51
-0.080212362 -0.1275228 0.74765241 0.0032355757 218 49
-0.076792009 -0.12756555 0.7479564 0.0032226373 213 48
-0.073230848 -0.12736739 0.74684173 0.0032871522 205 46
-0.069868997 -0.12751347 0.74773985 0.0034202172 198 45
-0.066565678 -0.12778708 0.74938071 0.0034868682 192 43
-0.063190043 -0.12794417 0.75033385 0.003769282 198 45
-0.059659738 -0.12778819 0.74944651 0.0032328879 215 49
-0.056092452 -0.12752892 0.7479496 0.0031609095 227 51
-0.052755605 -0.12779394 0.749524 0.0029581874 245 56
-0.049555909 -0.12845159 0.75339848 0.0029998701 237 54
-0.046153221 -0.1286425 0.75453252 0.0031858014 227 51
-0.04277977 -0.12895265 0.75636375 0.0032314288 218 49
-0.039439142 -0.12942553 0.75914729 0.003525466 207 47
-0.035969924 -0.1295274 0.75975293 0.0033716708 220 50
-0.032374162 -0.12914641 0.75752479 0.0030747501 230 52
-0.028760493 -0.12859328 0.7542854 0.0030185229 237 54
-0.025289664 -0.12861457 0.75441438 0.0029187892 245 56
-0.02176236 -0.12830967 0.75262886 0.0029409265 241 55
-0.01823438 -0.12788445 0.75013697 0.0031251325 228 52
-0.014698756 -0.12719421 0.74608994 0.0034970006 211 48
-0.011102612 -0.12539907 0.73556137 0.003767123 182 41
-0.0077014118 -0.1251958 0.73436981 0.0051267473 133 30
-0.0043333704 -0.12563537 0.73694861 0.0059091947 111 25
-0.00092072709 -0.12328384 0.72315532 0.0062776385 97 22
0.0023921961 -0.12233205 0.71757227 0.0059491582 108 24
0.005691288 -0.12218771 0.71672535 0.0059185312 119 27
0.0089993887 -0.12227175 0.71721762 0.0056413943 126 28
0.012341471 -0.12264837 0.71942592 0.0053187418 119 27
nan nan nan 0 104 23
0.020263242 -0.13100833 0.76845986 0.0069164918 87 19
0.023417417 -0.12888333 0.75599253 0.0063851057 96 21
0.026530858 -0.12711343 0.74560732 0.0066873077 89 20
0.029339742 -0.12445737 0.73002344 0.0053290189 110 25
0.032461319 -0.12353765 0.72462314 0.0050726891 140 32
0.03574577 -0.12335151 0.72352451 0.0043570609 144 32
0.039065685 -0.12330905 0.72326696 0.0043330872 145 33
0.042213112 -0.12277162 0.7201044 0.0045546559 135 30
0.045757428 -0.12338269 0.72367603 0.0044803382 138 31
0.048885826 -0.12286542 0.72062725 0.0051076571 137 31
0.052311346 -0.12311322 0.72206283 0.0045662639 137 31
0.055804279 -0.12348057 0.72419643 0.0049457327 142 32
0.05874034 -0.12264375 0.71926433 0.0044547231 144 32
0.062392499 -0.12331162 0.72315282 0.0042738998 145 33
0.0655827 -0.12304503 0.72155702 0.0044053379 154 35
0.06851007 -0.12233488 0.71735531 0.0043225507 148 33
0.072071858 -0.12277078 0.71986896 0.0048531778 133 30
0.075788572 -0.12342062 0.72363108 0.0060648913 110 25
0.078899838 -0.12307125 0.72152841 0.0050336677 121 27
