# .PCD v0.7 - Point Cloud Data file format
VERSION 0.7
FIELDS x y z noise intensity gray
SIZE 4 4 4 4 2 1
TYPE F F F F U U
COUNT 1 1 1 1 1 1
WIDTH 857
HEIGHT 1
VIEWPOINT 0 0 0 1 0 0 0
POINTS 857
DATA ascii
nan nan nan 0 382 88
nan nan nan 0 391 90
-0.16265191 -0.0072160535 0.37011725 0.0013471964 770 177
-0.15870784 -0.0071199429 0.36611539 0.0011118159 1074 247
-0.15926154 -0.0072257193 0.37247965 0.0011004776 1091 251
-0.15674825 -0.0071931761 0.37170455 0.0010572912 1207 255
-0.15520623 -0.0072049671 0.37319747 0.0010227425 1247 255
-0.15327902 -0.0071989414 0.37374657 0.0010442046 1187 255
-0.15270765 -0.0072572096 0.37761661 0.0010771954 1127 255
-0.15032521 -0.0072297733 0.37700668 0.0010547149 1174 255
-0.14804928 -0.0072068567 0.37660208 0.0010234156 1221 255
-0.14672449 -0.0072302436 0.37859187 0.0010729313 1134 255
-0.14532511 -0.0072504939 0.3803964 0.0010644473 1182 255
-0.1441476 -0.0072824643 0.38279507 0.0011250625 1049 241
-0.14267942 -0.0073003783 0.38443375 0.0011302354 1050 242
-0.14199324 -0.0073592844 0.38821214 0.0011531189 1013 233
-0.14202932 -0.0074576605 0.39406055 0.0012501992 915 210
-0.14259011 -0.0075865691 0.40151563 0.0013153189 822 189
-0.14117697 -0.0076125087 0.40350783 0.0013261023 793 182
-0.13960773 -0.0076306262 0.40506279 0.0013456398 774 178
-0.13648809 -0.0075633302 0.40205422 0.0012367344 898 207
-0.13443789 -0.0075542401 0.40210909 0.0011952496 943 217
-0.13261944 -0.0075580985 0.40282819 0.0012059731 930 214
-0.13092589 -0.0075692879 0.40391487 0.0012287983 908 209
-0.1291388 -0.0075753205 0.40470389 0.0012049223 973 224
-0.12765168 -0.0075993882 0.40643519 0.00120047 927 213
-0.12558174 -0.0075889635 0.40630001 0.001174908 963 222
-0.12375365 -0.007593058 0.40691972 0.0012276747 943 217
-0.1225944 -0.0076389546 0.4097608 0.0012687772 865 199
-0.12266319 -0.007764033 0.41683641 0.001344941 784 180
-0.12344594 -0.0079390444 0.42658594 0.0014280754 715 164
-0.12138718 -0.0079340404 0.42664978 0.0014405303 703 162
-0.11863013 -0.007882474 0.42418751 0.0014076567 717 165
-0.11662426 -0.0078799231 0.42434162 0.0013901533 729 168
-0.11500455 -0.0079038227 0.4259024 0.0013563605 772 177
-0.11166412 -0.0078082341 0.42100409 0.0013328434 788 181
-0.11085875 -0.0078896657 0.42563239 0.0013512051 769 177
-0.109145 -0.0079082241 0.42685503 0.0013907066 778 179
-0.10731518 -0.0079189036 0.42763689 0.0013350009 793 182
-0.10554996 -0.0079348385 0.42868754 0.0013474838 776 178
-0.10374069 -0.0079480102 0.42957428 0.0014032514 728 167
-0.10108592 -0.0078956541 0.42690396 0.0013904037 743 171
-0.099144943 -0.0078980764 0.42718059 0.0015039059 704 162
-0.097690001 -0.0079401024 0.42958641 0.0015278641 681 157
-0.095913194 -0.0079571651 0.43062985 0.0016008517 638 147
-0.093866192 -0.0079520624 0.43046132 0.0015604614 610 140
-0.091517359 -0.0079206144 0.42885444 0.0015610636 623 143
-0.088771351 -0.0078526437 0.42525762 0.0015684696 611 140
-0.084616818 -0.007654191 0.41458145 0.0015333741 637 146
-0.082258895 -0.0076128407 0.41240236 0.0015461516 686 158
-0.079317436 -0.00751425 0.4071123 0.0014660842 719 165
-0.077457301 -0.0075158067 0.40723854 0.0014530558 736 169
-0.075756028 -0.0075332355 0.40821666 0.0014760694 695 160
-0.075407721 -0.0076895189 0.4167119 0.0015199948 681 157
-0.073904455 -0.0077331173 0.41909373 0.0014702639 683 157
-0.072836243 -0.0078257974 0.42412856 0.0015313769 637 146
-0.071805477 -0.0079277214 0.42965806 0.0015572121 614 141
-0.072437786 -0.0082242424 0.44572774 0.0016010221 592 136
-0.073073953 -0.0085385172 0.46275321 0.001778355 513 118
-0.072467752 -0.0087221498 0.47269207 0.0018150473 484 111
-0.067851849 -0.008419605 0.45627776 0.0014877125 657 151
-0.065822951 -0.0084289927 0.4567636 0.0014348458 719 165
-0.064045355 -0.0084722443 0.45908001 0.0014410561 725 167
-0.062097318 -0.0084951352 0.46028891 0.0014386161 740 170
-0.060347542 -0.008547727 0.46310332 0.0014406556 699 161
-0.05829772 -0.0085601173 0.46373636 0.0014348821 698 160
-0.056145407 -0.0085578281 0.46357146 0.0013962578 728 167
-0.05421361 -0.0085902996 0.46528706 0.0015511798 666 153
-0.052043095 -0.008586063 0.46501246 0.0015127102 660 152
-0.049834039 -0.0085748313 0.46435753 0.0015056567 661 152
-0.047517594 -0.0085432818 0.46260163 0.0014646299 679 156
-0.045209255 -0.0085102934 0.46076742 0.0014510482 688 158
-0.043271504 -0.0085472511 0.46271998 0.0014609192 684 157
-0.040969554 -0.008512374 0.46078345 0.0014534477 684 157
-0.038781464 -0.0084986314 0.45999169 0.0015229339 687 158
-0.036759738 -0.0085218651 0.46120182 0.0014790335 684 157
-0.034699358 -0.0085384427 0.46205252 0.0015008131 669 154
-0.032688469 -0.0085701635 0.46372372 0.0015004266 683 157
-0.03058847 -0.0085813319 0.46428406 0.0015042772 649 149
-0.028420193 -0.0085735843 0.46382269 0.0014824381 665 153
-0.026278622 -0.0085732881 0.46376657 0.0015578578 666 153
-0.024149926 -0.0085775098 0.46395713 0.0015502175 647 149
-0.021837981 -0.0085111354 0.46033177 0.0014727007 684 157
-0.019805193 -0.0085509783 0.46245405 0.0015196626 702 161
-0.017760973 -0.0085949162 0.46480039 0.0014611649 688 158
-0.015599389 -0.0085863313 0.46430919 0.0014678534 675 155
-0.013441199 -0.0085771773 0.46379045 0.001465705 688 158
-0.011303411 -0.0085800365 0.46392468 0.0014451337 696 160
-0.009120129 -0.0085416287 0.46183094 0.001489212 698 160
-0.0070551499 -0.0086243888 0.46629202 0.001442428 698 160
-0.0048865718 -0.0085975872 0.46483281 0.0014321607 702 161
-0.0027431885 -0.0086078495 0.46538115 0.0014714306 676 155
-0.00059362891 -0.008602866 0.46510893 0.0014983545 691 159
0.0015569542 -0.008617321 0.46589124 0.001461304 677 156
0.0037286319 -0.0086640194 0.46842042 0.0015143573 693 159
0.0059587858 -0.0087624146 0.47374842 0.0015521153 639 147
0.008178547 -0.008796785 0.47561863 0.0016049517 608 140
0.010385422 -0.0088056754 0.4761149 0.0016250338 604 139
0.012591078 -0.0088106068 0.47640052 0.0015385348 629 145
0.014819919 -0.008827881 0.47735721 0.0015944862 601 138
0.017102072 -0.0088683274 0.47957039 0.0016435528 584 134
0.019246534 -0.0088362871 0.47786677 0.001668609 600 138
0.021400394 -0.0088147065 0.47673175 0.0015046929 646 148
0.023414999 -0.0087451413 0.47300401 0.0014934308 657 151
0.025480356 -0.0087047834 0.47085822 0.0015487156 666 153
0.027657544 -0.0087059699 0.47096184 0.0014931668 658 151
0.030011153 -0.0087584704 0.47384387 0.0015150382 657 151
0.0322427 -0.0087706354 0.47454596 0.0015434723 622 143
0.034540441 -0.008798115 0.4760786 0.0016494597 597 137
0.036941916 -0.0088471519 0.47877955 0.0016925592 560 129
0.038881037 -0.0087861717 0.47552782 0.0016635319 596 137
0.041314598 -0.0088374736 0.4783538 0.0016816226 543 125
0.043473057 -0.0088277068 0.47787517 0.0017559356 519 119
0.045110039 -0.0087181032 0.47199145 0.0017201151 536 123
0.045940802 -0.0084699485 0.45860451 0.0016491613 587 135
0.047868755 -0.0084370179 0.45686877 0.0016438469 573 132
0.049563259 -0.0083674528 0.45314777 0.0015783292 605 139
0.050276119 -0.0081444941 0.44111684 0.0015808161 607 139
0.051971439 -0.0080918362 0.43830666 0.0015085449 650 149
0.053639434 -0.0080390237 0.43548566 0.0015018447 658 151
0.054649159 -0.0078949248 0.42771634 0.0014430626 736 169
0.056245524 -0.0078426572 0.42491841 0.0014049235 730 168
0.057317521 -0.0077232514 0.41847935 0.0013868493 773 178
0.058602389 -0.0076393681 0.41396096 0.001442786 750 172
0.059774373 -0.0075465208 0.40895244 0.0013406948 828 190
0.061767869 -0.007559895 0.40969589 0.0012975753 828 190
0.06341853 -0.0075317593 0.4081853 0.0012684785 849 195
0.064767443 -0.007470442 0.40487126 0.001240822 889 204
0.066839509 -0.0074936305 0.40613192 0.0012814798 840 193
0.067754477 -0.0073893634 0.40047911 0.0012577176 904 208
0.06993036 -0.0074244961 0.40237519 0.0012437475 881 203
0.071935438 -0.0074401451 0.40320879 0.0012679831 861 198
0.073901422 -0.0074510672 0.40377915 0.0012732848 876 201
0.075773202 -0.0074521881 0.40381083 0.0012892999 881 203
0.077591859 -0.0074481545 0.4035553 0.0012501345 898 207
0.07959722 -0.0074618128 0.40424985 0.0012088121 922 212
0.081424199 -0.0074585071 0.40401644 0.0011768091 958 220
0.08329726 -0.0074594761 0.40400517 0.001171739 968 223
0.085169092 -0.0074602938 0.40397584 0.0011686948 974 224
0.087166645 -0.0074718539 0.40451777 0.0011749205 971 223
0.0891736 -0.007483718 0.405065 0.0011816648 959 221
0.09118329 -0.0074953213 0.40558633 0.0012244401 929 214
0.094691522 -0.0076271608 0.41259974 0.0013253342 850 195
0.096666954 -0.007632772 0.41276988 0.001257728 859 198
0.10005583 -0.0077476148 0.41883156 0.0013658183 782 180
0.10195532 -0.00774496 0.41852528 0.0013567784 776 178
0.10319303 -0.0076930691 0.41554508 0.0013362671 837 192
0.10499577 -0.0076844278 0.41488743 0.0012230682 907 209
0.10683945 -0.0076790387 0.4143903 0.0012426857 935 215
0.10846206 -0.0076582301 0.41304579 0.0011592871 988 227
0.11024566 -0.0076493132 0.41232687 0.0011617654 989 228
0.11243909 -0.007668653 0.4131135 0.0012086624 947 218
0.11402913 -0.0076468792 0.41166776 0.0011516568 996 229
0.11577663 -0.0076362086 0.41080266 0.001162765 1027 236
0.11765511 -0.0076343832 0.41039506 0.0011265008 1040 239
0.11951721 -0.0076315696 0.409915 0.0011256079 1037 239
0.1208889 -0.007598022 0.40776584 0.0011145306 1051 242
0.12380774 -0.0076612495 0.41078824 0.0011361851 1035 238
0.12573917 -0.0076623796 0.4104566 0.0011507181 1008 232
0.12719259 -0.0076347846 0.40856585 0.0011760363 1004 231
0.12899473 -0.0076286276 0.40780178 0.001158093 986 227
0.12966491 -0.0075566792 0.40350246 0.0011298505 1037 239
0.13179095 -0.0075704246 0.40375909 0.0011124726 1053 242
0.13413258 -0.0075959899 0.40461969 0.001121882 1046 241
0.13518858 -0.0075490503 0.40159535 0.0011062556 1069 246
0.13752837 -0.0075741066 0.40237764 0.0011581815 1077 248
0.13940504 -0.007573321 0.40176004 0.001116221 1060 244
0.14069992 -0.0075413748 0.39946613 0.001159011 1009 232
0.14442977 -0.0076390598 0.4040072 0.0012926478 830 191
0.14622907 -0.0076334216 0.40304932 0.0013813481 776 178
0.1454879 -0.0074970163 0.3951728 0.0012084931 919 211
0.14716728 -0.0074872235 0.39395651 0.0012223125 966 222
0.14878559 -0.0074746083 0.3925671 0.0011846777 1023 235
0.15053785 -0.0074689519 0.39151815 0.0011503188 1035 238
0.15218455 -0.0074582607 0.39018047 0.0011434467 1020 235
0.15489446 -0.0074993037 0.39151958 0.0013026342 885 204
0.1582298 -0.0075692851 0.39433125 0.0013598317 763 175
0.15763912 -0.0074520209 0.38736823 0.001253143 915 210
0.15719852 -0.0073445044 0.38091367 0.0011660066 1031 237
0.1588527 -0.0073362109 0.37959585 0.0011108048 1074 247
0.16045335 -0.0073256609 0.378142 0.0011023092 1085 250
0.16239461 -0.0073307245 0.37747502 0.0011485083 1022 235
0.16396302 -0.0073190331 0.37592819 0.0011662508 993 228
0.16570964 -0.0073154662 0.37478536 0.0012123109 929 214
0.16703478 -0.0072935722 0.3726944 0.0012450677 935 215
0.16690648 -0.0072093713 0.3674247 0.0011179881 1056 243
0.16845407 -0.0071985829 0.36590379 0.0011032651 1081 249
0.16968675 -0.0071747089 0.36372137 0.0010712864 1133 255
0.17137659 -0.0071704583 0.36254123 0.0010803471 1181 255
0.17326683 -0.0071745967 0.36179394 0.0010637023 1152 255
0.17543906 -0.0071902061 0.36163703 0.0010733681 1172 255
0.17768116 -0.0072083338 0.36162284 0.0011229923 1049 241
0.17976524 -0.0072197518 0.36129528 0.0011840718 966 222
0.17839524 -0.0070935981 0.35413063 0.0011927888 986 227
0.17656641 -0.0069518569 0.34625882 0.0011359063 1047 241
0.17745127 -0.0069186823 0.34385952 0.0011299414 1041 240
0.18059655 -0.0069734291 0.34587917 0.0012341981 896 206
0.19030336 -0.0072780726 0.36031741 0.0014292996 737 169
-0.15611981 -0.0039666202 0.26059994 0.0059471517 99 22
-0.15336904 -0.0039299568 0.25791723 0.007679814 77 17
-0.1484603 -0.0038368911 0.25159362 0.0050174776 124 28
-0.14284207 -0.0037237152 0.2440147 0.0034728774 204 47
-0.14232261 -0.0037426406 0.24515027 0.0036635818 184 42
nan nan nan 0 124 28
nan nan nan 0 68 15
nan nan nan 0 42 9
nan nan nan 0 33 7
nan nan nan 0 28 6
-0.31143105 -0.0086434837 0.56744301 0.017657438 34 7
-0.31336743 -0.0087783001 0.57697004 0.021395333 31 7
-0.31434804 -0.0088886265 0.58503109 0.02413634 30 6
nan nan nan 0 37 8
-0.31439507 -0.0090604648 0.59834713 0.017759658 34 7
-0.31638876 -0.0092062065 0.60915488 0.017866619 40 9
-0.31692439 -0.0093119573 0.61744606 0.0093301553 64 14
-0.31584677 -0.0093719279 0.62281215 0.0055386722 119 27
-0.31318769 -0.0093857013 0.62519491 0.0051330053 137 31
nan nan nan 0 171 39
nan nan nan 0 224 51
nan nan nan 0 195 44
-0.29808304 -0.0093041826 0.62610811 0.0041906782 154 35
-0.29758969 -0.0093862759 0.63330936 0.0041302098 155 35
-0.29029107 -0.0092531899 0.62599367 0.0039658463 161 37
-0.28170905 -0.0090759024 0.61563408 0.0034045035 202 46
nan nan nan 0 273 62
nan nan nan 0 386 88
nan nan nan 0 362 83
nan nan nan 0 503 115
-0.15930654 -0.0054231272 0.37262127 0.0012869848 887 204
-0.15773429 -0.0054311282 0.37407887 0.0011879004 958 220
-0.1556288 -0.0054207416 0.3742491 0.0010808515 1118 255
-0.15338734 -0.0054053203 0.37404567 0.0010546186 1165 255
-0.15149301 -0.0054019112 0.37464741 0.0010449681 1188 255
-0.14978275 -0.0054050609 0.37567997 0.0010196089 1234 255
-0.1481083 -0.0054095974 0.37678534 0.0010287773 1217 255
-0.14644253 -0.0054145646 0.37789688 0.00102469 1223 255
-0.14472683 -0.005417787 0.37886211 0.0010241917 1226 255
-0.14304693 -0.0054224487 0.37990326 0.0010340395 1199 255
-0.14202416 -0.0054524555 0.3826986 0.001134144 1085 250
-0.14187324 -0.0055171447 0.38791409 0.0011484165 1017 234
-0.14063935 -0.0055408645 0.39023355 0.0011821517 967 222
-0.14153139 -0.0056500821 0.39856353 0.0012739514 849 195
-0.14089508 -0.0057004062 0.40273073 0.0013410089 791 182
-0.13938135 -0.0057161204 0.40443367 0.001394341 736 169
-0.13765545 -0.005723448 0.4055199 0.0013603363 770 177
-0.13453268 -0.005672086 0.40241838 0.0012708103 859 198
-0.13271908 -0.0056752465 0.40315583 0.0012953306 864 199
-0.1307057 -0.0056698304 0.40325975 0.0012533105 876 201
-0.12935221 -0.0056933006 0.40539613 0.0012442908 890 205
-0.12734759 -0.0056883832 0.40548953 0.0012464926 901 207
-0.12538275 -0.0056851208 0.40567786 0.0012119723 919 211
-0.12373573 -0.0056963903 0.40688166 0.0012915529 901 207
-0.12221701 -0.0057140091 0.40851954 0.0012462306 906 208
-0.12073805 -0.0057340735 0.41031376 0.0012672044 857 197
-0.11915651 -0.0057498319 0.41178176 0.0012816607 843 194
-0.11823405 -0.0057984269 0.41558522 0.0013629067 794 183
-0.11806122 -0.0058860071 0.42217067 0.0013980302 733 169
-0.11844958 -0.0060049938 0.43100005 0.0015760702 661 152
-0.11572129 -0.0059673488 0.42857265 0.0014692587 679 156
-0.11344309 -0.0059520043 0.42772642 0.0014897834 710 163
-0.11136463 -0.0059467796 0.42758897 0.0014173401 726 167
-0.10880506 -0.0059152106 0.42553902 0.0013871319 740 170
-0.10713681 -0.0059318282 0.42693877 0.0013962094 734 169
-0.10482544 -0.0059127933 0.42575675 0.0014136885 751 173
-0.10271558 -0.0059046145 0.42534053 0.001367182 755 174
-0.10043586 -0.0058861617 0.424169 0.0013923901 749 172
-0.09895876 -0.0059149489 0.42638797 0.0014296309 709 163
-0.097532205 -0.0059479871 0.42890152 0.0015254163 654 150
-0.096002862 -0.0059759952 0.43104067 0.0016018051 604 139
-0.093387194 -0.005936136 0.42827213 0.0015925926 604 139
-0.090968266 -0.0059073302 0.42628807 0.0015772183 620 142
-0.087202519 -0.0057878611 0.41774809 0.0015402699 633 145
-0.083818667 -0.0056889146 0.41067603 0.0014915973 665 153
-0.07946974 -0.0055183801 0.39842343 0.0013890595 748 172
-0.07869567 -0.0055938889 0.4039247 0.0013938836 734 169
-0.077180758 -0.0056191189 0.40578768 0.0014650822 738 170
-0.075273141 -0.0056163012 0.40561718 0.0014237624 717 165
-0.075271957 -0.0057592043 0.41596365 0.0014645651 697 160
-0.074147865 -0.0058214152 0.42047539 0.0014977576 668 154
-0.072788112 -0.0058679651 0.42384914 0.0015149884 646 148
-0.072009265 -0.0059652026 0.43087766 0.0016453263 622 143
-0.072399251 -0.0061675245 0.44549024 0.0017150374 567 130
-0.074189194 -0.006504389 0.46981466 0.001857248 473 109
-0.071505114 -0.006457462 0.46641129 0.0018341861 518 119
-0.067887276 -0.0063206879 0.45651373 0.0014688036 676 155
-0.065851338 -0.006327162 0.45695776 0.001475975 702 161
-0.063935876 -0.0063460199 0.45829177 0.0014247019 709 163
-0.06237812 -0.0064028855 0.46236634 0.0014428759 685 157
-0.060447752 -0.0064241723 0.46386775 0.0014916647 661 152
-0.058651432 -0.0064617894 0.4665449 0.001533826 629 145
-0.056461513 -0.0064572534 0.46617571 0.0016073534 627 144
-0.054672092 -0.006499975 0.46921578 0.001563734 624 143
-0.051937547 -0.006429221 0.46406272 0.0015738877 657 151
-0.049492497 -0.0063897637 0.46116799 0.0015371436 677 156
-0.047181085 -0.0063647917 0.45931807 0.0014223023 712 164
-0.044665556 -0.0063086422 0.45521829 0.0014569963 723 166
-0.042397313 -0.0062836031 0.45336354 0.0014250292 753 173
-0.040258203 -0.0062760999 0.45277438 0.0014265442 753 173
-0.038394444 -0.0063130492 0.45539212 0.0014263596 705 162
-0.036386717 -0.0063292324 0.45651227 0.0014183476 708 163
-0.03441298 -0.006353681 0.45822921 0.0014256617 707 163
-0.032080419 -0.0063107442 0.45508766 0.0014941014 717 165
-0.029994663 -0.0063137431 0.45526057 0.0014368474 706 162
-0.028036755 -0.0063461321 0.45755419 0.0014485077 685 157
-0.02579936 -0.0063153831 0.4552975 0.0014470591 704 162
-0.023908749 -0.0063715959 0.45931241 0.0014579564 681 157
-0.021788983 -0.0063717384 0.45928741 0.0014880571 690 159
-0.019584309 -0.0063444059 0.45728469 0.0014781874 700 161
-0.017573001 -0.0063806777 0.45986924 0.0014262901 703 162
-0.015490495 -0.0063975155 0.46105587 0.0014504659 694 160
-0.01336305 -0.006398201 0.46108153 0.001428581 720 166
-0.011255477 -0.0064104646 0.46194482 0.0014350262 702 161
-0.0090702297 -0.0063738804 0.45929155 0.0014176499 724 166
-0.0069884099 -0.0064098286 0.46186832 0.0013978941 727 167
-0.004867489 -0.0064257421 0.46300486 0.0014139531 712 164
-0.0027319614 -0.0064322003 0.46346372 0.0014460511 690 159
-0.00059241336 -0.0064416779 0.46414372 0.001472579 697 160
0.001557441 -0.0064677605 0.46602392 0.0015145679 662 152
0.003729698 -0.0065026376 0.46854144 0.001497651 652 150
0.0059901322 -0.0066091935 0.47622758 0.0015993136 620 142
0.008140469 -0.006569664 0.47339129 0.0015750945 604 139
0.01034501 -0.0065813567 0.47424939 0.0016322007 588 135
0.012646537 -0.0066398834 0.47848609 0.0016080791 582 134
0.014905648 -0.0066620442 0.48010588 0.0017222828 564 130
0.017258648 -0.0067149969 0.48394838 0.0016340427 570 131
0.0192187 -0.0066204462 0.47716331 0.0016582838 611 140
0.021311782 -0.0065864571 0.47474566 0.0015219735 661 152
0.0232141 -0.0065053483 0.468934 0.0014697649 674 155
0.025351746 -0.0064983978 0.46847013 0.0014818575 673 155
0.027571132 -0.0065118461 0.4694792 0.0015179443 670 154
0.029920409 -0.0065517761 0.4724001 0.0015774341 640 147
0.032233082 -0.0065788114 0.47439364 0.0015608689 617 142
0.034755029 -0.0066424049 0.47902578 0.0016273342 576 132
0.036708109 -0.0065961732 0.4757393 0.0016681676 597 137
0.038657732 -0.00655457 0.47278714 0.0016387076 606 139
0.040996782 -0.0065799155 0.47466475 0.0016710032 558 128
0.042957928 -0.0065451115 0.47220382 0.0018183466 535 123
0.043951858 -0.0063734124 0.45986506 0.0016963684 572 131
0.045394957 -0.0062796548 0.45314789 0.0016384915 589 135
0.047357161 -0.0062627997 0.4519788 0.0015536958 621 143
0.048070882 -0.006089218 0.4394967 0.0015267421 668 154
0.049928229 -0.0060686842 0.43805844 0.0015114648 636 146
0.050448555 -0.0058935513 0.42545781 0.0014161749 714 164
0.05209301 -0.0058579356 0.42292571 0.0013819269 746 171
0.053114403 -0.0057573519 0.41570002 0.0013256453 801 184
0.055231158 -0.0057783709 0.41725132 0.001370306 753 173
0.056588646 -0.005721211 0.4131543 0.0013698568 815 187
0.057911519 -0.0056643882 0.40907785 0.0012685652 861 198
0.059544954 -0.0056405659 0.40738052 0.0012197768 919 211
0.061376225 -0.005636367 0.40709642 0.0012183583 910 209
0.062909305 -0.0056058466 0.40490654 0.0011949488 940 216
0.0646329 -0.0055935709 0.40402955 0.0012333263 896 206
0.066144414 -0.0055641416 0.40190825 0.0012132737 926 213
0.068266563 -0.0055862842 0.40350631 0.0012423121 912 210
0.069800407 -0.0055603879 0.40162846 0.0012719854 916 211
0.071704477 -0.0055645597 0.40191588 0.0012184258 917 211
0.073691256 -0.0055747787 0.40263313 0.0012264046 903 208
0.075707622 -0.0055866791 0.40346417 0.0012362074 891 205
0.077711642 -0.0055971197 0.40418175 0.0012797148 874 201
0.079477184 -0.0055902973 0.40364429 0.0012542977 921 212
0.081324384 -0.0055893995 0.40352586 0.0012124004 973 224
0.083041005 -0.0055797682 0.4027676 0.0011924963 1001 230
0.084992446 -0.0055859913 0.40314397 0.001137921 1023 235
0.086810052 -0.0055833398 0.40286958 0.0011086587 1079 248
0.088834323 -0.0055938126 0.40353116 0.0011237164 1046 241
0.091096759 -0.0056185452 0.40520948 0.0011761819 968 223
0.093344778 -0.0056414115 0.40674037 0.0011871428 955 220
0.096112266 -0.0056941519 0.41041091 0.0012465203 878 202
0.098881774 -0.0057449718 0.41392738 0.0012463628 879 202
0.10137789 -0.0057782796 0.41616616 0.0012758087 843 194
0.10270344 -0.0057448703 0.41358539 0.001247588 878 202
0.10463053 -0.005745715 0.41345686 0.0012111464 918 211
0.10667838 -0.0057530426 0.41377896 0.0012563692 905 208
0.10827988 -0.0057364656 0.41236621 0.0012416185 939 216
0.11017843 -0.0057359259 0.41209042 0.0011923162 963 222
0.11232159 -0.0057479232 0.41269758 0.0012125807 934 215
0.11412467 -0.005742406 0.41202918 0.0011926257 939 216
0.11580336 -0.0057309153 0.41091484 0.0011398221 1017 234
0.11751324 -0.0057213167 0.40991831 0.0011359798 1020 235
0.11872168 -0.0056879977 0.40720534 0.0011075477 1072 247
0.12088224 -0.0057006259 0.40776291 0.0011515665 1060 244
0.12274356 -0.0056989715 0.40727779 0.0011546033 1057 243
0.12477893 -0.005705324 0.40734339 0.0011652308 1032 237
0.12545754 -0.0056503806 0.40301445 0.0011341324 1028 237
0.12735146 -0.0056509869 0.40262949 0.0011212893 1073 247
0.12947308 -0.0056615318 0.40292916 0.0011015965 1083 249
0.13145852 -0.0056659062 0.40276524 0.0010949101 1090 251
0.13336389 -0.0056667533 0.40232632 0.0010839646 1106 255
0.13462439 -0.0056405584 0.39994553 0.0010822628 1119 255
0.1364623 -0.005638944 0.39928547 0.0010764028 1122 255
0.13845369 -0.005643629 0.39904603 0.0011324729 1084 249
0.14039491 -0.0056461715 0.3986288 0.0011375572 1038 239
0.1433288 -0.0056880401 0.40095717 0.0012423825 887 204
0.14612481 -0.0057234168 0.4027926 0.0013312701 799 184
0.14630704 -0.0056568254 0.39742887 0.0012433706 882 203
0.1467299 -0.0056011104 0.39281732 0.0011614279 986 227
0.14826472 -0.0055887075 0.39122513 0.0011344982 1053 242
0.15007143 -0.0055867336 0.39033815 0.0011278032 1045 240
0.15150093 -0.0055709369 0.3884615 0.001140158 1053 242
0.15394798 -0.0055924873 0.3891618 0.0011803674 969 223
0.15701894 -0.0056359172 0.39134917 0.0013167483 814 187
0.1561296 -0.0055378508 0.38369435 0.0012333135 910 209
0.15642761 -0.0054836976 0.37908134 0.0011370688 1039 239
0.15796262 -0.0054736561 0.37750494 0.0011030962 1114 255
0.15916465 -0.0054524364 0.37514132 0.001086597 1163 255
0.16102931 -0.0054541398 0.37433818 0.0010842775 1119 255
0.16290663 -0.0054562287 0.37354311 0.0011219059 1045 240
0.16510075 -0.0054687648 0.37344536 0.0011956864 967 222
0.16656835 -0.0054572248 0.37169084 0.0011923999 951 219
0.16623792 -0.0053876615 0.36598948 0.0011663581 1061 244
0.16781268 -0.0053806687 0.36454687 0.0010798816 1143 255
0.1694974 -0.0053773131 0.36335129 0.0011070691 1136 255
0.17129637 -0.0053776135 0.36240667 0.001073659 1135 255
0.17326421 -0.0053831548 0.36182287 0.0010857929 1140 255
0.17513251 -0.0053855218 0.36103854 0.0010761273 1131 255
0.17799276 -0.0054180352 0.36228955 0.0011429709 1017 234
0.17980902 -0.0054184366 0.36141437 0.001252151 913 210
0.17973767 -0.005362513 0.35682464 0.0012155778 923 212
0.17670889 -0.0052203201 0.34656495 0.0012137126 977 225
0.18329224 -0.0053620925 0.35520339 0.001259274 865 199
nan nan nan 0 687 158
0.2198938 -0.0063099936 0.41636837 0.0018823063 466 107
-0.15433872 -0.0026164681 0.25762054 0.004346244 145 33
-0.15309511 -0.0026175161 0.25745133 0.0054716412 123 28
-0.15271863 -0.0026335355 0.25880596 0.0066201729 99 22
-0.15046412 -0.0026171657 0.25703239 0.0057470137 103 23
-0.14245848 -0.0024995997 0.24538259 0.0034600468 198 45
-0.14020963 -0.0024818589 0.24359311 0.0031878422 241 55
-0.1391667 -0.0024853381 0.24394257 0.0031829949 226 52
nan nan nan 0 120 27
nan nan nan 0 54 12
nan nan nan 0 37 8
nan nan nan 0 35 8
-0.30320901 -0.0056673056 0.55828303 0.020236952 38 8
-0.31680205 -0.0059770904 0.58961892 0.022862211 30 6
-0.31030825 -0.0059101838 0.58394682 0.017237483 37 8
-0.32171297 -0.0061861612 0.61230177 0.02155659 32 7
-0.32068464 -0.0062260949 0.61745626 0.019201856 33 7
-0.31793204 -0.0062330058 0.61944228 0.017497307 41 9
-0.31428364 -0.0062223189 0.6197651 0.012625234 51 11
-0.31009448 -0.0062006037 0.61905736 0.0066623944 97 22
-0.3072598 -0.0062058088 0.62109673 0.004629917 136 31
-0.30191261 -0.0061598574 0.61805791 0.0046370039 155 35
nan nan nan 0 211 48
nan nan nan 0 228 52
-0.29109481 -0.0061261528 0.6195308 0.0041311961 173 39
-0.29300901 -0.0062318454 0.63189942 0.0041608899 164 37
-0.28662872 -0.0061615026 0.62642992 0.0044369698 161 37
-0.2797201 -0.0060781538 0.61959118 0.0036487018 186 42
nan nan nan 0 244 56
nan nan nan 0 342 78
nan nan nan 0 393 90
nan nan nan 0 360 83
-0.16261961 -0.0037360683 0.38569137 0.0015509314 647 149
-0.15628688 -0.0036321953 0.37585714 0.0012282931 920 212
-0.15464787 -0.0036362505 0.37714469 0.0012035879 962 221
-0.1520597 -0.0036178194 0.37607348 0.0011404571 1021 235
-0.14959766 -0.0036019823 0.37523985 0.0010711844 1138 255
-0.14724414 -0.0035884052 0.37461048 0.0010415134 1223 255
-0.14650477 -0.0036143158 0.37808067 0.0010438033 1223 255
-0.14473155 -0.0036150475 0.37889713 0.0010277813 1276 255
-0.14304565 -0.0036180078 0.379922 0.0010492711 1181 255
-0.14068177 -0.0036036759 0.379103 0.0010332494 1206 255
-0.14021403 -0.0036381725 0.38339859 0.0010861055 1111 255
-0.14034498 -0.0036893126 0.38943756 0.0011526057 1009 232
-0.13887165 -0.0036990782 0.39109388 0.0011802029 966 222
-0.13900825 -0.0037525673 0.39735749 0.001277401 894 206
-0.13796511 -0.0037752343 0.40034387 0.0013101437 832 191
-0.13681968 -0.0037956906 0.40307686 0.0013600979 804 185
-0.13469034 -0.0037890426 0.40290853 0.0013559796 795 183
-0.13247779 -0.0037798304 0.4024407 0.0012800189 866 199
-0.13099577 -0.0037914969 0.40417188 0.0013104661 818 188
-0.1292468 -0.0037956655 0.40508237 0.0012656831 855 197
-0.12776069 -0.0038077927 0.40682098 0.0013058056 816 188
-0.12628171 -0.0038205008 0.408602 0.0013404994 828 190
-0.1243127 -0.0038185467 0.40879393 0.001295276 822 189
-0.12203299 -0.0038068388 0.40791872 0.0012629729 859 198
-0.12007254 -0.0038048776 0.40806589 0.0012665337 852 196
-0.11825566 -0.0038074763 0.40868178 0.0012691331 858 197
-0.11715446 -0.0038335784 0.41180313 0.0013348563 820 189
-0.11776192 -0.0039173854 0.42111275 0.00140694 726 167
-0.1163471 -0.0039356146 0.42336172 0.0014655071 705 162
-0.11522698 -0.0039646081 0.4267534 0.0014842605 667 153
-0.11369199 -0.0039800908 0.42867568 0.0015129894 649 149
-0.11176077 -0.0039820056 0.42912018 0.0014780763 668 154
-0.10991924 -0.0039872434 0.42990625 0.0015144795 646 148
-0.10695982 -0.0039513772 0.42624247 0.0014335302 706 162
-0.10499033 -0.0039514201 0.42643499 0.0014653837 725 167
-0.10198161 -0.0039116056 0.42230901 0.0013684987 757 174
-0.10033851 -0.0039236383 0.42376521 0.001445585 728 167
-0.098848864 -0.0039422698 0.42592135 0.0014979729 672 154
-0.097159445 -0.0039535291 0.42726862 0.0015158531 646 148
-0.09507224 -0.0039487323 0.42686814 0.0015593445 615 141
-0.093026988 -0.0039455127 0.42662552 0.0016360692 617 142
-0.08890222 -0.0038520503 0.41661099 0.0015591873 632 145
-0.085689873 -0.0037948666 0.41050583 0.001513401 649 149
-0.082257442 -0.0037251329 0.40303028 0.0015020577 701 161
-0.079264186 -0.0036725246 0.39739594 0.0014093395 732 168
-0.07701239 -0.0036525948 0.39528745 0.0013774547 761 175
-0.075725913 -0.0036785924 0.39814091 0.0014619856 724 166
-0.074432038 -0.0037055116 0.40108657 0.0014204138 735 169
-0.073253892 -0.0037397102 0.40481293 0.0014623769 714 164
-0.073913045 -0.0038719431 0.41914475 0.0014870437 672 154
-0.073855139 -0.0039726994 0.43006307 0.001519023 640 147
-0.07224939 -0.0039934563 0.43231452 0.0016385557 609 140
-0.073335297 -0.0041683842 0.45124954 0.0016957651 543 125
-0.073671058 -0.0043096375 0.46653268 0.0019485833 460 106
-0.070242994 -0.0042325845 0.45817745 0.0016079444 583 134
-0.068080097 -0.0042293542 0.4578087 0.0014396607 690 159
-0.065764479 -0.0042161271 0.45635295 0.0015067554 706 162
-0.063959226 -0.004235825 0.4584567 0.0014291685 710 163
-0.062530696 -0.0042826701 0.46349436 0.0015544308 655 151
-0.060511447 -0.0042909402 0.4643532 0.001500772 648 149
-0.058307026 -0.0042862049 0.46380162 0.0015390837 673 155
-0.05619932 -0.004288489 0.46400684 0.0015093856 653 150
-0.053893223 -0.0042752163 0.4625268 0.0014847079 688 158
-0.050933022 -0.0042068237 0.45508251 0.0014275798 716 165
-0.049007274 -0.0042216666 0.45664158 0.0014383646 706 162
-0.046798307 -0.0042123487 0.45558628 0.001413297 720 166
-0.044419423 -0.0041861427 0.4527041 0.0014113284 725 167
-0.042300049 -0.004183013 0.4523176 0.0013526226 766 176
-0.040243924 -0.0041861394 0.45260745 0.0014274733 748 172
-0.038222767 -0.0041934438 0.45334938 0.0013845174 739 170
-0.036329404 -0.0042164256 0.45578647 0.0014528452 696 160
-0.034116514 -0.0042028679 0.45427462 0.0014120117 740 170
-0.032044057 -0.0042059678 0.45456463 0.0014313477 701 161
-0.029930644 -0.0042037503 0.45428142 0.0014169306 708 163
-0.027840361 -0.0042046914 0.45434138 0.0014254225 706 162
-0.025812991 -0.0042160619 0.45553017 0.0014136321 714 164
-0.023723016 -0.0042183176 0.45573619 0.001463507 698 160
-0.021670975 -0.0042284126 0.45679167 0.0014996582 703 162
-0.019542895 -0.0042242487 0.45630929 0.0014218208 712 164
-0.017425416 -0.0042216475 0.4559986 0.0014015408 715 164
-0.015290414 -0.0042135017 0.45509207 0.0013709022 757 174
-0.013217712 -0.0042226636 0.45605806 0.0013433021 776 178
-0.011174212 -0.0042463955 0.45860082 0.0014112776 744 171
-0.0090669878 -0.0042513474 0.45911846 0.0014318493 712 164
-0.0069660177 -0.0042631496 0.46037936 0.0014269617 699 161
-0.0048614745 -0.0042821732 0.46242359 0.0014383547 699 161
-0.002730533 -0.0042895363 0.46321216 0.0014385924 687 158
-0.00059264182 -0.0042997613 0.46431348 0.0014863702 669 154
0.0015599777 -0.0043225368 0.46677375 0.0015666146 658 151
0.0037324443 -0.004341973 0.46887714 0.0015219522 640 147
0.0059328228 -0.0043676859 0.47166204 0.001547176 618 142
0.0080992877 -0.0043613259 0.47098726 0.0015796119 598 137
0.010285201 -0.004365915 0.47149834 0.0016137613 582 134
0.012486842 -0.0043744086 0.47243482 0.0016342041 590 136
0.014713342 -0.0043877908 0.4739027 0.0015413254 627 144
0.016791604 -0.0043592229 0.47084308 0.0015106834 645 148
0.018779732 -0.0043164883 0.4662559 0.0014631272 679 156
0.020968055 -0.0043238252 0.46708018 0.0014411468 699 161
0.023157457 -0.0043299957 0.46778139 0.0015136536 695 160
0.02528372 -0.0043243151 0.46720478 0.0015202904 689 158
0.027486997 -0.0043316633 0.4680385 0.0014836375 665 153
0.030026721 -0.0043870984 0.4740707 0.0015593859 618 142
0.032213241 -0.0043869023 0.47409394 0.0016401896 603 139
0.034121193 -0.0043512085 0.47028235 0.001585649 591 136
0.036135685 -0.0043325569 0.46831343 0.001551291 616 142
0.038661916 -0.0043739034 0.47283134 0.0016338385 568 130
0.040882066 -0.0043780557 0.47332987 0.0018262598 533 122
0.042105522 -0.0042804629 0.46282768 0.0016277961 577 133
0.042978819 -0.0041584088 0.44967839 0.0015870858 601 138
0.045050226 -0.0041581779 0.44970119 0.0015912424 596 137
0.046074945 -0.0040656095 0.43973628 0.0014976598 654 150
0.047135923 -0.0039839088 0.43094406 0.0014320617 702 161
0.048745897 -0.0039533414 0.42768064 0.0014600627 700 161
0.049912676 -0.0038906052 0.42093468 0.0013337509 789 181
0.051287085 -0.0038481422 0.41637912 0.0012852494 833 192
0.052739326 -0.0038143718 0.41276133 0.0012638406 865 199
0.05462392 -0.0038131338 0.41266111 0.0012779232 841 193
0.056092907 -0.0037839431 0.40953264 0.0012418551 888 204
0.057659023 -0.0037629916 0.40729219 0.0012162233 921 212
0.059290376 -0.0037474844 0.4056372 0.0012179005 918 211
0.060946204 -0.003734424 0.40424278 0.0012018719 930 214
0.062830478 -0.0037357223 0.40439826 0.0012092704 970 223
0.064751051 -0.0037390413 0.40476757 0.0012684528 877 202
0.066074647 -0.0037086664 0.40148416 0.0012358212 918 211
0.067994006 -0.0037124748 0.40189558 0.0012121722 935 215
0.06977503 -0.0037087288 0.40148312 0.0011580649 983 226
0.071608536 -0.0037078934 0.40137926 0.0011962294 939 216
0.073694028 -0.0037198202 0.40264982 0.0012040596 927 213
0.075649269 -0.0037247469 0.40315509 0.0012378475 883 203
0.077600934 -0.0037292661 0.40360832 0.0012282712 900 207
0.079506524 -0.0037314114 0.40379623 0.001209967 934 215
0.081180722 -0.0037228472 0.4028163 0.0011695055 996 229
0.083133161 -0.0037271406 0.40321836 0.0011506521 1000 230
0.084879979 -0.003722229 0.4026148 0.0011869802 980 225
0.086442441 -0.0037096159 0.40116826 0.0011604242 988 227
0.088897422 -0.003735031 0.40382305 0.001202955 992 228
0.091446117 -0.0037632596 0.40676928 0.001222981 946 218
0.093376227 -0.0037654075 0.40688363 0.0011663312 980 225
0.095500171 -0.003775134 0.40780407 0.0011875989 955 220
0.097734824 -0.0037887753 0.40913349 0.0012028984 928 213
0.10018545 -0.0038101135 0.41127899 0.0012831903 883 203
0.10250268 -0.0038256783 0.41278547 0.00123423 891 205
0.10440857 -0.0038256019 0.41258878 0.0012133692 922 212
0.10625061 -0.0038232307 0.41212928 0.0012033784 928 213
0.10823686 -0.0038260417 0.4122124 0.0012178569 946 218
0.10990397 -0.0038176693 0.41107446 0.0012234322 943 217
0.11211287 -0.0038280813 0.41194192 0.0012149902 953 219
0.11397798 -0.0038266024 0.41151142 0.001199199 938 216
0.1154833 -0.0038132912 0.40979144 0.00119379 969 223
0.11742325 -0.0038145315 0.4096173 0.0011469913 1009 232
0.11907726 -0.0038065903 0.40843832 0.0011809608 1013 233
0.12066291 -0.003796749 0.40703711 0.0011488564 1021 235
0.122493 -0.0037947835 0.40646094 0.0011472964 1006 231
0.1239622 -0.003781867 0.40469223 0.0011283938 1037 239
0.1255379 -0.0037725391 0.40328833 0.0011458399 1055 243
0.12708017 -0.0037624964 0.40178806 0.0011226968 1070 246
0.12885462 -0.0037595206 0.40102127 0.0011398449 1087 250
0.13061769 -0.0037563026 0.40020642 0.0010775408 1128 255
0.13260585 -0.0037595569 0.40005741 0.0010837093 1140 255
0.13409592 -0.0037487962 0.39839405 0.0010865959 1110 255
0.13628007 -0.0037574687 0.39877149 0.0010922132 1097 252
0.13825722 -0.0037602752 0.39849955 0.0011337053 1072 247
0.13968478 -0.0037482595 0.39663273 0.0011535259 1052 242
0.14199135 -0.0037598372 0.3972367 0.0011810868 961 221
0.14425409 -0.0037699668 0.39765763 0.0013657801 814 187
0.14633158 -0.0037750572 0.39751783 0.0012835477 839 193
0.14604428 -0.0037197859 0.39100432 0.0011551612 992 228
0.14784814 -0.0037184961 0.39014897 0.0010964997 1093 252
0.14859085 -0.0036908803 0.38651061 0.0011016568 1083 249
0.15075906 -0.0036989145 0.38658318 0.0011036865 1082 249
0.15185513 -0.0036807675 0.38389558 0.0011302449 1037 239
0.15632269 -0.0037437987 0.38963905 0.0012454647 894 206
0.15592654 -0.0036902349 0.38322064 0.0012590167 920 212
0.15599231 -0.0036487256 0.37805188 0.0011031589 1086 250
0.15749621 -0.0036414238 0.37641609 0.001058496 1182 255
0.15870346 -0.0036275079 0.37408021 0.0010616801 1191 255
0.16059943 -0.0036294705 0.37336504 0.0010843861 1106 255
0.16292644 -0.0036410214 0.37361497 0.0011635709 1036 238
0.16340767 -0.0036115244 0.36964214 0.0011879741 1004 231
0.16498798 -0.0036066966 0.36819068 0.0011571456 1002 231
0.16585453 -0.0035865384 0.36517143 0.0011231557 1102 254
0.16754751 -0.0035844902 0.36399668 0.0011253729 1117 255
0.16923535 -0.0035823768 0.36281508 0.0010783384 1132 255
0.17120442 -0.0035861984 0.3622373 0.0010748901 1132 255
0.17322165 -0.0035909398 0.36175862 0.0010836642 1123 255
0.17549811 -0.0036009029 0.36181626 0.001112495 1068 246
0.17831279 -0.0036215952 0.36296424 0.0012249319 944 217
0.17990282 -0.0036172494 0.36162522 0.0012582609 886 204
0.18095961 -0.0036023741 0.35927159 0.0012854624 863 198
nan nan nan 0 739 170
nan nan nan 0 562 129
nan nan nan 0 363 83
0.28273496 -0.0054134401 0.53538066 0.003217832 231 53
-0.15046404 -0.0012786423 0.2511493 0.0042358581 148 34
-0.15373638 -0.0013175906 0.25852653 0.0046864939 133 30
-0.15303655 -0.0013228729 0.25934222 0.0044271816 143 32
-0.15232742 -0.0013281653 0.26021358 0.0052390611 116 26
-0.14991477 -0.0013185674 0.2582249 0.0061737942 93 21
-0.14671195 -0.0013017887 0.25488964 0.0048244614 124 28
-0.13959906 -0.0012497077 0.24470095 0.0029936552 253 58
-0.13779116 -0.0012446084 0.24376789 0.0029551026 251 57
-0.14021298 -0.0012779685 0.25042728 0.0039948816 167 38
nan nan nan 0 85 19
nan nan nan 0 46 10
nan nan nan 0 35 8
nan nan nan 0 31 7
-0.31286585 -0.0029870435 0.58877403 0.018726893 35 8
nan nan nan 0 32 7
nan nan nan 0 43 9
nan nan nan 0 36 8
nan nan nan 0 42 9
-0.3068808 -0.0030759943 0.61266392 0.015929839 42 9
-0.30495337 -0.0030874638 0.61645776 0.0088335527 71 16
-0.30489171 -0.0031182496 0.62418103 0.0051244702 123 28
-0.30270079 -0.0031276676 0.62768841 0.00420088 154 35
nan nan nan 0 185 42
nan nan nan 0 245 56
nan nan nan 0 206 47
-0.28528458 -0.0030741212 0.623519 0.0045811837 163 37
-0.28107837 -0.0030616198 0.62262642 0.0042378488 164 37
-0.27607289 -0.0030400434 0.61985773 0.0039483295 181 41
nan nan nan 0 214 49
nan nan nan 0 290 66
nan nan nan 0 394 90
nan nan nan 0 362 83
nan nan nan 0 425 97
-0.15675205 -0.0018475614 0.38229156 0.001379363 750 172
-0.15374497 -0.0018336204 0.38025641 0.0012901308 890 205
-0.15194137 -0.0018338703 0.38113332 0.0012009646 953 219
-0.1497357 -0.0018292144 0.38096368 0.001116777 1063 245
-0.14668868 -0.0018140392 0.37856928 0.0010573575 1215 255
-0.14470203 -0.0018117623 0.3788335 0.0010259872 1228 255
-0.14252861 -0.0018070603 0.37856206 0.0010662645 1214 255
-0.1410339 -0.0018109533 0.38006493 0.0010834353 1178 255
-0.14082663 -0.0018316919 0.38508651 0.0011011225 1101 253
-0.13798128 -0.0018182121 0.38289106 0.001055514 1172 255
-0.13792129 -0.0018415648 0.38842955 0.0011317699 1051 242
-0.136199 -0.0018430518 0.389339 0.0011602176 991 228
-0.13570866 -0.0018614784 0.39380774 0.0012156576 923 212
-0.13444757 -0.001869696 0.39609978 0.0012370291 899 207
-0.13304532 -0.0018761534 0.39799851 0.0012549683 873 201
-0.13251522 -0.0018952688 0.40256506 0.0012860838 837 192
-0.13065124 -0.0018955827 0.40311924 0.0013078483 873 201
-0.12894596 -0.0018982426 0.4041495 0.0012643462 897 206
-0.12648134 -0.0018896363 0.40275681 0.0012355772 896 206
-0.1255874 -0.0019045911 0.4063648 0.0012351244 891 205
-0.12383041 -0.0019067145 0.40721685 0.0012560836 868 200
-0.12168786 -0.001902875 0.40677372 0.0012552431 866 199
-0.11960432 -0.0018998515 0.40648285 0.0012758761 850 195
-0.11777497 -0.0019008336 0.40702838 0.0012848401 838 193
-0.11677983 -0.0019155309 0.41049394 0.0013235599 806 185
-0.11571445 -0.0019295448 0.41379842 0.001340473 782 180
-0.11579566 -0.0019634734 0.42136216 0.0014163179 718 165
-0.11475176 -0.0019791615 0.42500016 0.0015099056 653 150
-0.11341371 -0.0019902354 0.42763287 0.0015816645 642 148
-0.11169742 -0.0019949474 0.42888311 0.0015474382 667 153
-0.10917393 -0.001985152 0.42699707 0.0015006738 684 157
-0.10715794 -0.0019843942 0.42703748 0.001444468 694 160
-0.10498935 -0.0019807289 0.4264361 0.0014403821 702 161
-0.10214305 -0.0019638927 0.42298234 0.0014474762 712 164
-0.10003971 -0.0019609635 0.4225077 0.0014504438 730 168
-0.097877629 -0.0019567434 0.42174047 0.0014504316 690 159
-0.096641079 -0.0019712306 0.42499277 0.0015875832 636 146
-0.094470814 -0.0019668781 0.42417118 0.0015944407 628 144
-0.091722116 -0.0019500435 0.42064446 0.0015078469 655 151
-0.087167501 -0.0018932575 0.40848458 0.0015280282 679 156
-0.083946511 -0.0018635688 0.40215647 0.0014626754 690 159
-0.080981776 -0.0018383563 0.39678213 0.0014195598 728 167
-0.078954361 -0.0018337481 0.39584446 0.0014156344 725 167
-0.076984607 -0.0018302929 0.39514643 0.0013597825 767 176
-0.075170055 -0.0018304498 0.39521968 0.0013658961 765 176
-0.073960207 -0.0018457045 0.39854506 0.0013851428 745 171
-0.072376184 -0.001852161 0.39996335 0.0014013699 738 170
-0.073307574 -0.0019250076 0.41571176 0.0014862816 705 162
-0.071943797 -0.0019398768 0.41893345 0.0014696341 678 156
-0.072655275 -0.0020130647 0.43474326 0.0016131637 588 135
-0.074099362 -0.0021112757 0.45595083 0.0019161658 493 113
-0.073101461 -0.0021436093 0.46292505 0.0018383929 475 109
-0.069721617 -0.0021059394 0.45477599 0.0015349713 650 149
-0.067498416 -0.0021019543 0.45389614 0.0014452947 694 160
-0.065739058 -0.002112621 0.45617527 0.0014486897 691 159
-0.063845634 -0.0021195407 0.45764089 0.0014288811 705 162
-0.061891615 -0.0021248532 0.45875552 0.0014384844 690 159
-0.059022807 -0.0020980248 0.45292768 0.0013973709 727 167
-0.05656239 -0.0020842776 0.44992164 0.0013540355 767 176
-0.054538667 -0.0020861884 0.45029336 0.0013691289 758 174
-0.052538481 -0.0020891866 0.45089737 0.0014048036 776 178
-0.050648913 -0.0020970113 0.45254123 0.0014025439 788 181
-0.048714403 -0.0021035678 0.45390967 0.0014620033 723 166
-0.046561528 -0.0021008605 0.45327795 0.0014371788 710 163
-0.044424955 -0.0020986686 0.45275706 0.0014309547 718 165
-0.042337082 -0.0020986747 0.45271 0.0013931377 729 168
-0.040275183 -0.0021000358 0.45295528 0.0014238821 705 162
-0.038101017 -0.0020953715 0.45190141 0.0014068699 736 169
-0.035977673 -0.0020931244 0.45136967 0.0014425823 729 168
-0.033825897 -0.002088845 0.45040077 0.0013794312 743 171
-0.031989679 -0.0021047676 0.45378888 0.0014239935 727 167
-0.029915808 -0.002106189 0.45405167 0.001461186 735 169
-0.02771382 -0.0020981259 0.45227176 0.0014342128 747 172
-0.025679851 -0.0021025047 0.4531759 0.0013676934 754 173
-0.023717841 -0.0021140745 0.45563191 0.001435773 727 167
-0.021622928 -0.0021148969 0.45577386 0.0014969135 711 163
-0.01950979 -0.002113922 0.45553124 0.0014224979 707 163
-0.017386591 -0.0021114901 0.45497748 0.0014436933 712 164
-0.015277817 -0.0021103821 0.45471194 0.0014450062 718 165
-0.013153959 -0.0021065052 0.45385313 0.0013454732 769 177
-0.011108227 -0.0021160406 0.45588729 0.0013646533 756 174
-0.0090291053 -0.0021221889 0.45719483 0.0014119144 722 166
-0.0069652796 -0.0021367823 0.46032506 0.0014724634 667 153
-0.0048493617 -0.0021411967 0.46126589 0.0014794039 678 156
-0.0027326308 -0.0021518881 0.46356252 0.0014893812 696 160
-0.00059304712 -0.0021568357 0.46462548 0.0015405545 672 154
0.001555781 -0.0021609489 0.46551239 0.0015143375 679 156
0.003715246 -0.0021664926 0.46671113 0.001463715 678 156
0.0058837757 -0.0021713101 0.46775723 0.0014992912 647 149
0.0080687683 -0.0021779845 0.46920693 0.001551812 621 143
0.010253358 -0.0021817468 0.47003305 0.0015608972 613 141
0.012396543 -0.0021769234 0.46901301 0.0015193179 637 146
0.014570274 -0.0021781013 0.46928924 0.0014783621 666 153
0.016534271 -0.0021516804 0.46362212 0.0015112803 694 160
0.01868986 -0.0021533917 0.46401945 0.0013987913 725 167
0.020911479 -0.0021615759 0.4658148 0.0014967999 683 157
0.023234732 -0.0021777602 0.46933731 0.001574204 639 147
0.025540482 -0.002189683 0.47194445 0.0015548787 614 141
0.02802033 -0.0022134844 0.47711498 0.0016054251 588 135
0.030037649 -0.0021999418 0.47423846 0.0016392306 604 139
0.031997129 -0.0021842904 0.47090879 0.0015274653 638 147
0.034112535 -0.0021805973 0.47015849 0.0016527938 610 140
0.036229979 -0.0021774683 0.46953124 0.0016579757 578 133
0.038361844 -0.0021755099 0.46915743 0.0016760069 571 131
0.040402513 -0.0021688652 0.46777368 0.0016540586 561 129
0.041705254 -0.0021252902 0.4584243 0.0016781308 546 125
0.042836014 -0.0020775788 0.44818082 0.0015769074 603 139
0.044333115 -0.00205121 0.44253966 0.0016031191 628 144
0.045067746 -0.0019934366 0.43012062 0.0014041626 726 167
0.04584663 -0.0019424084 0.41915384 0.001333784 795 183
0.047933463 -0.0019486813 0.42055005 0.001365379 784 180
0.048905276 -0.0019108991 0.41243649 0.001318949 853 196
0.050513539 -0.0018998822 0.41009697 0.0012165374 922 212
0.052060653 -0.0018874427 0.40744787 0.0012167676 917 211
0.05415738 -0.0018951021 0.40913486 0.0012201366 905 208
0.055895176 -0.0018901086 0.40808752 0.0012228959 909 209
0.057504483 -0.0018812369 0.40619931 0.0011745724 966 222
0.059144121 -0.0018738855 0.40463552 0.0011728659 981 226
0.060817007 -0.0018680042 0.40338507 0.0011912242 947 218
0.062455881 -0.0018614586 0.40198666 0.0011920248 948 218
0.064188272 -0.0018579967 0.40124926 0.0012323501 940 216
0.065995127 -0.0018568232 0.40100092 0.0012011915 928 213
0.067792945 -0.0018554667 0.4007073 0.0011991722 942 217
0.069782026 -0.0018592785 0.4015238 0.0011852651 954 219
0.071991548 -0.0018686149 0.40352675 0.0012444091 888 204
0.07379327 -0.0018671626 0.40319291 0.001284088 895 206
0.075662404 -0.0018674459 0.40322632 0.001260172 895 206
0.077517256 -0.001867371 0.40317464 0.0012375563 882 203
0.079346038 -0.0018666865 0.40298283 0.0011893525 950 219
0.081223637 -0.0018671557 0.40303126 0.0012014876 939 216
0.083064608 -0.0018667805 0.40288806 0.0012732011 903 208
0.085109681 -0.0018709085 0.40370691 0.0012637801 880 202
0.087644741 -0.0018854005 0.40675089 0.0012644337 859 198
0.089525491 -0.0018855045 0.40667924 0.0012590194 863 198
0.091701694 -0.001891699 0.4079096 0.0013311815 836 192
0.093594216 -0.0018919103 0.40783736 0.0012503016 880 202
0.095234014 -0.0018871051 0.40667149 0.0011877234 937 216
0.097706638 -0.0018986696 0.40901992 0.0012259501 918 211
0.099907346 -0.0019046116 0.410142 0.0012523801 901 207
0.10201277 -0.0019085499 0.41081756 0.0012287206 893 205
0.10416102 -0.0019131306 0.41161591 0.0012235675 908 209
0.1059643 -0.0019113249 0.41102445 0.0011952549 938 216
0.10777988 -0.0019098007 0.41047814 0.0012800645 898 207
0.10990214 -0.0019136688 0.41107395 0.0012157684 924 213
0.11159113 -0.0019099899 0.41003153 0.0011799104 969 223
0.11372688 -0.0019139529 0.41061193 0.0012447978 925 213
0.11513297 -0.0019057079 0.40855572 0.0011729273 962 221
0.11700965 -0.001905393 0.40818217 0.0011630765 979 225
0.11895504 -0.0019061891 0.40802723 0.0012086974 977 225
0.12072913 -0.0019042586 0.40726897 0.0011448464 1024 236
0.1224118 -0.001900968 0.40620026 0.0012012776 978 225
0.12389996 -0.0018948023 0.40449816 0.0011808309 1006 231
0.12550992 -0.0018906569 0.40320781 0.0011304162 1027 236
0.12689814 -0.0018833425 0.4012222 0.0010942008 1097 252
0.12901126 -0.0018868432 0.40151882 0.0010766479 1118 255
0.13024205 -0.0018775244 0.39906585 0.0010955227 1087 250
0.13200133 -0.0018759794 0.39824447 0.0010681135 1131 255
0.13408859 -0.0018790738 0.39838335 0.0011119557 1110 255
0.13559254 -0.0018740216 0.39677116 0.0010878704 1092 251
0.13776338 -0.0018781981 0.39708805 0.0010982679 1085 250
0.1395179 -0.0018766631 0.39617118 0.0011428054 1068 246
0.14120612 -0.0018742884 0.39505243 0.0011623293 995 229
0.1443644 -0.001891234 0.39797476 0.001345869 821 189
0.14615934 -0.0018901131 0.39706326 0.0013568535 817 188
0.14497416 -0.001850972 0.38815272 0.0011647815 993 228
0.14654827 -0.0018476001 0.38673249 0.0011042779 1080 249
0.14867774 -0.0018512267 0.38675067 0.0011331774 1078 248
0.14987469 -0.0018432955 0.38432977 0.0011630583 1036 238
0.15145248 -0.0018401834 0.38289231 0.0011411422 1047 241
0.15325928 -0.0018398952 0.3820183 0.0011786469 988 227
0.15455499 -0.0018335503 0.37986493 0.0012129515 961 221
0.15578023 -0.0018265269 0.37755314 0.0011035159 1108 255
0.15632257 -0.0018117513 0.37362641 0.0010792691 1149 255
0.15780607 -0.0018080958 0.37198046 0.001068953 1191 255
0.16053459 -0.0018186271 0.37323001 0.0010771331 1129 255
0.16199958 -0.0018147692 0.37150532 0.0011371945 1079 248
0.16270432 -0.0018025737 0.36806676 0.0011120468 1074 247
0.16413009 -0.0017985448 0.36629185 0.0010848469 1117 255
