# .PCD v0.7 - Point Cloud Data file format
VERSION 0.7
FIELDS x y z noise intensity gray
SIZE 4 4 4 4 2 1
TYPE F F F F U U
COUNT 1 1 1 1 1 1
WIDTH 942
HEIGHT 1
VIEWPOINT 0 0 0 1 0 0 0
POINTS 942
DATA ascii
0.088874057 -0.079497494 0.42842144 0.0013555717 765 206
0.090462618 -0.079148717 0.4263151 0.0013684939 765 206
0.092884943 -0.079528756 0.42812085 0.0014454807 739 199
0.094717018 -0.079398081 0.4271628 0.0014354949 727 196
0.096678324 -0.079378881 0.4267906 0.0014879241 686 185
0.098531507 -0.079273447 0.42594033 0.001409297 708 191
0.10075831 -0.079466842 0.42668003 0.001448456 706 190
0.1034287 -0.079995863 0.42920303 0.0014868366 656 177
0.10552455 -0.080068864 0.42926052 0.0016000036 630 170
0.10830752 -0.080650806 0.43202642 0.001653758 578 155
0.11037125 -0.08068569 0.43184164 0.0016439466 558 150
0.1134285 -0.081432596 0.43544555 0.0016119676 569 153
0.1154964 -0.08145541 0.43515477 0.0016189133 569 153
0.11978625 -0.083017334 0.44305852 0.0017439653 524 141
0.12151545 -0.08278165 0.44134107 0.0018441102 513 138
0.1260913 -0.084460638 0.44980219 0.0018021085 481 129
0.12776989 -0.084175609 0.44777387 0.001624045 573 154
0.12945464 -0.083903804 0.4457972 0.0015108971 674 181
0.13351327 -0.08515472 0.4518818 0.0016179506 569 153
0.1365561 -0.085728668 0.45433828 0.0018263161 476 128
0.14311481 -0.088458009 0.46817011 0.0021286542 411 110
0.14925024 -0.090846665 0.48013631 0.0022312531 397 107
0.15117888 -0.090641476 0.47835118 0.0017512708 505 136
0.15351208 -0.090681322 0.47783375 0.0016453561 586 158
0.1553735 -0.090445369 0.4758378 0.001510632 626 168
0.15751556 -0.090377204 0.47470006 0.0014453157 678 182
0.15863129 -0.089730442 0.47050238 0.0014089212 709 191
0.16100745 -0.089804724 0.47006372 0.001480812 648 174
0.16365987 -0.090028934 0.47038007 0.0015166438 649 175
0.16561061 -0.08986631 0.46864802 0.0015121938 632 170
0.16676219 -0.089280181 0.46468863 0.0015319875 660 178
0.16775709 -0.088626772 0.46036628 0.0014005104 734 198
0.16957183 -0.088417865 0.45833728 0.0014274832 738 199
0.17183548 -0.088445395 0.45751229 0.0013992293 762 205
0.17382343 -0.088332124 0.45593762 0.0013613299 741 199
0.17569359 -0.088162571 0.45405489 0.0014043666 720 194
0.17661315 -0.08752615 0.44975817 0.0013659885 748 201
0.17852207 -0.087389588 0.44802245 0.0014072674 769 207
0.18029375 -0.087189972 0.44595337 0.0013992959 767 206
0.18315199 -0.087514311 0.44655174 0.0016059997 596 160
0.19047073 -0.089937158 0.45781663 0.0023825162 330 89
0.1931981 -0.090160809 0.45785052 0.0026637909 274 73
0.19851822 -0.09157531 0.46391198 0.0027851199 277 74
0.20346917 -0.09278921 0.46893048 0.0029138993 261 70
nan nan nan 0 162 43
nan nan nan 0 116 31
0.24358487 -0.10741016 0.53899628 0.0051567671 113 30
0.24894276 -0.10857598 0.54361725 0.0052994769 112 30
0.27309826 -0.11782677 0.58864629 0.0060989591 105 28
0.27305081 -0.11654936 0.58104551 0.0058484972 109 29
0.27883369 -0.11776124 0.58591938 0.00577717 104 28
0.2813046 -0.11756367 0.58384317 0.0063769119 101 27
nan nan nan 0 105 28
nan nan nan 0 85 22
0.31017059 -0.12568833 0.6212343 0.009497622 65 17
nan nan nan 0 89 24
nan nan nan 0 95 25
0.31133971 -0.12244134 0.60324955 0.0078092739 81 21
nan nan nan 0 81 21
0.31110954 -0.11999167 0.59049016 0.0071591581 81 21
0.29914358 -0.1142748 0.56219852 0.0080922702 81 21
nan nan nan 0 30 8
nan nan nan 0 18 4
nan nan nan 0 21 5
nan nan nan 0 28 7
nan nan nan 0 40 10
-0.31884378 -0.10978934 0.55679566 0.01235318 48 12
-0.31446859 -0.10924723 0.55333745 0.0075904271 76 20
nan nan nan 0 73 19
nan nan nan 0 29 7
nan nan nan 0 33 8
nan nan nan 0 59 15
nan nan nan 0 37 9
nan nan nan 0 44 11
nan nan nan 0 136 36
nan nan nan 0 103 27
nan nan nan 0 100 26
nan nan nan 0 37 9
nan nan nan 0 127 34
nan nan nan 0 216 58
nan nan nan 0 150 40
nan nan nan 0 56 15
nan nan nan 0 82 22
nan nan nan 0 89 24
nan nan nan 0 85 22
nan nan nan 0 253 68
nan nan nan 0 270 72
nan nan nan 0 65 17
nan nan nan 0 48 12
nan nan nan 0 147 39
-0.20625481 -0.090113342 0.46584636 0.0021425523 376 101
-0.2040527 -0.090161137 0.46721399 0.002127615 380 102
-0.20007433 -0.089416206 0.46447656 0.0020440372 404 109
-0.19872791 -0.089843877 0.46783239 0.0021456606 394 106
-0.19798203 -0.090556279 0.47268617 0.0021901161 388 104
-0.19609848 -0.090759046 0.47488779 0.0025014651 337 90
-0.19365557 -0.090704694 0.4757379 0.0023666706 321 86
-0.19092397 -0.090512142 0.47584885 0.0022106045 353 95
-0.1881725 -0.090305336 0.47586513 0.0025718957 285 76
-0.18509126 -0.08993312 0.47498536 0.0037773673 174 46
-0.18396989 -0.090515822 0.4791317 0.0030186574 246 66
-0.17985938 -0.089623921 0.47544724 0.0022350992 351 94
-0.17663205 -0.089154713 0.47396618 0.0022741216 358 96
-0.17406127 -0.08900895 0.47417328 0.0023721282 328 88
-0.17213553 -0.089193538 0.47611511 0.0030440076 212 57
-0.16850236 -0.088486463 0.47326562 0.0022882137 374 100
-0.16499883 -0.087829106 0.47064117 0.0020885805 420 113
-0.16290556 -0.087914623 0.47196466 0.0027799557 259 69
-0.15905748 -0.087042242 0.46811101 0.0027713443 299 80
-0.15092252 -0.0837657 0.45126224 0.0017400676 509 137
-0.14800437 -0.083331831 0.44966733 0.0017242297 524 141
-0.1450998 -0.082893021 0.44801232 0.001793429 479 129
-0.13920885 -0.080709718 0.43688148 0.0016007764 597 161
-0.13556884 -0.079785272 0.43251473 0.0014155671 706 190
-0.13330318 -0.079653725 0.43241391 0.0013723708 796 214
-0.13022809 -0.079026885 0.42959505 0.0013143732 826 222
-0.12804739 -0.078931563 0.42963722 0.0013335322 832 224
-0.12645361 -0.079200782 0.43164214 0.0013740218 751 202
-0.12539418 -0.079818927 0.43553245 0.0015847792 640 172
-0.12383362 -0.080133282 0.43774924 0.0016030651 618 166
-0.12090503 -0.079558082 0.43508369 0.0015421986 648 174
-0.12019042 -0.080444962 0.44039461 0.0017543801 504 136
-0.11683498 -0.079564415 0.43600962 0.0017063578 518 139
-0.11107921 -0.076988921 0.42229825 0.0014467608 671 181
-0.10828884 -0.076412722 0.41951853 0.0013889093 757 204
-0.10601003 -0.076182932 0.41861877 0.0013305516 776 209
-0.10379156 -0.075988688 0.4178949 0.001418835 773 208
-0.10158186 -0.075793557 0.41714779 0.001439529 687 185
-0.099108987 -0.075390622 0.41523811 0.001498791 706 190
-0.09685564 -0.075141966 0.41415989 0.0015033975 703 189
-0.094690584 -0.074953102 0.41339463 0.0013823323 741 199
-0.092541352 -0.074769206 0.41264081 0.0013596042 778 209
-0.090478592 -0.074648872 0.41222271 0.0013313218 793 213
-0.088381432 -0.074494347 0.41160142 0.0013225739 797 215
-0.085884266 -0.073988385 0.4090234 0.0013130071 818 220
-0.083995432 -0.073995486 0.40926784 0.0013160141 800 215
-0.082098752 -0.073995829 0.40946293 0.0013605957 804 216
-0.079970315 -0.073782384 0.40846294 0.0013676294 790 213
-0.079015523 -0.074667655 0.41353607 0.0015385329 685 184
-0.076873794 -0.074447393 0.4124772 0.001506436 701 189
-0.074875049 -0.074357942 0.4121322 0.0013923823 723 195
-0.072369762 -0.07374762 0.40888923 0.0013063168 809 218
-0.070356153 -0.073619008 0.40830639 0.0013333752 782 211
-0.068306148 -0.073444195 0.40745795 0.0013793202 768 207
-0.067696124 -0.074851662 0.4153811 0.0015633937 669 180
-0.065620251 -0.074673168 0.41449711 0.001484999 676 182
-0.063525155 -0.07446143 0.41342008 0.0014747517 671 181
-0.061510839 -0.074334174 0.41280445 0.0014046121 723 195
-0.059262373 -0.073906772 0.41051447 0.0013984868 788 212
-0.057574734 -0.074173652 0.41207403 0.0013347737 780 210
-0.055461194 -0.073891334 0.41057628 0.0013393665 791 213
-0.053596769 -0.073932685 0.41087103 0.0014072794 729 196
-0.052210994 -0.074661545 0.4149816 0.0015050693 656 177
-0.050478108 -0.074930608 0.4165321 0.0015087152 636 171
-0.04854586 -0.074913323 0.41648611 0.0014792749 676 182
-0.046491314 -0.074698113 0.415335 0.0013611397 768 207
-0.044707768 -0.074918531 0.41660178 0.0014308528 703 189
-0.044021562 -0.077080153 0.42866024 0.0015852291 608 164
-0.042989645 -0.078811191 0.4383221 0.0017285609 568 153
nan nan nan 0 486 131
-0.040071536 -0.081083469 0.4510214 0.0018274008 488 131
nan nan nan 0 440 118
nan nan nan 0 400 107
-0.034394704 -0.082424372 0.45855033 0.0018324333 491 132
-0.032229967 -0.082292698 0.45783603 0.0019668329 473 127
-0.031541158 -0.086175025 0.47945204 0.0020438661 432 116
-0.029486096 -0.086628251 0.48198828 0.0021665439 404 109
-0.027290385 -0.086708426 0.48244703 0.0020530589 416 112
-0.02500763 -0.08650174 0.48130792 0.0020188987 422 113
-0.022728384 -0.086268134 0.48001751 0.0020673866 440 118
-0.020645728 -0.086810805 0.48304507 0.0019846675 422 113
-0.018713258 -0.088192388 0.49073958 0.0020132989 404 109
-0.01639986 -0.087911777 0.48918384 0.0020798589 417 112
-0.01398994 -0.086941883 0.48379156 0.0018621129 449 121
-0.011613273 -0.085850157 0.47772044 0.0017514783 506 136
-0.0095821777 -0.087399855 0.48634687 0.0018339705 466 125
-0.0074096015 -0.088211216 0.49086413 0.0019691091 427 115
-0.0051107397 -0.087571532 0.48730615 0.00186239 462 124
-0.0028633922 -0.087503769 0.48693007 0.0017978849 499 134
-0.00063017849 -0.0889403 0.4949244 0.00191104 441 119
0.0016565557 -0.089291334 0.49687764 0.0020680495 391 105
0.0039466666 -0.089311466 0.49698901 0.0019879248 444 119
0.0063025076 -0.090258129 0.5022555 0.001930524 424 114
0.0086441068 -0.090547152 0.50386178 0.0019707985 416 112
0.010774686 -0.088971309 0.49509022 0.0018480731 454 122
0.013091979 -0.08921852 0.49646232 0.0018633445 470 126
0.015593253 -0.090459518 0.50336355 0.0020793008 428 115
0.017835492 -0.090071008 0.50119638 0.0018353278 468 126
0.020146549 -0.09007927 0.50123596 0.0016844767 519 140
0.022447418 -0.090044938 0.50103736 0.0018445404 512 138
0.024779882 -0.090131961 0.50151259 0.0019229297 466 125
0.02717687 -0.090418801 0.50309813 0.0018160248 474 127
0.029742187 -0.091176584 0.50730217 0.0020584222 413 111
0.03176035 -0.090268806 0.50223726 0.0020825949 408 110
0.03368048 -0.089224651 0.49641174 0.0020222631 412 111
0.034735516 -0.086167276 0.47938403 0.0018606116 481 129
0.036499038 -0.085127972 0.47358209 0.0017595984 507 136
0.038553543 -0.08484634 0.47199285 0.0020095052 459 123
0.03946387 -0.082211226 0.45730937 0.0016699166 539 145
0.041279931 -0.081634469 0.45407358 0.0016154216 578 155
0.043232765 -0.081370808 0.45257631 0.0015679523 613 165
0.045284763 -0.081309468 0.45220089 0.001621332 567 153
0.046672717 -0.080113709 0.44551319 0.001587279 617 166
0.048187457 -0.079227202 0.44054213 0.0014998802 656 177
0.050024908 -0.078921534 0.43879706 0.001381778 735 198
0.051958825 -0.078785904 0.43799302 0.0014323777 693 187
0.053771522 -0.0784835 0.43625712 0.0014284278 725 195
0.055678472 -0.078335516 0.43537465 0.0015208707 673 181
0.057465706 -0.078035258 0.43364057 0.0014034515 737 198
0.059424538 -0.077980399 0.43326455 0.0013537058 764 206
0.061388899 -0.077936128 0.43294111 0.0014342181 691 186
0.063311554 -0.077843361 0.43234169 0.0013997735 713 192
0.065439448 -0.078000896 0.43312538 0.001480645 716 193
0.067429595 -0.077989779 0.43296489 0.0013962068 744 200
0.069545239 -0.078120276 0.43358254 0.0014581328 722 194
0.07160183 -0.078178987 0.43379319 0.0014796508 684 184
0.073680639 -0.07825809 0.43410811 0.0014084894 712 192
0.075441167 -0.078003921 0.43256548 0.0013891023 735 198
0.077012427 -0.077572227 0.43002999 0.0013392671 779 210
0.078917302 -0.077489831 0.42942193 0.0013431181 777 209
0.080348603 -0.076957926 0.42631376 0.0012820275 836 225
0.082743339 -0.077352159 0.42832544 0.00138985 766 206
0.084329635 -0.076989859 0.42613661 0.0012739263 844 227
0.086285129 -0.076973498 0.42585176 0.0013246642 853 230
0.088227399 -0.076946341 0.42549515 0.0013010482 850 229
0.089973293 -0.076752834 0.42420655 0.0012938315 841 226
0.091657765 -0.076516338 0.42266858 0.0013436181 842 227
0.093764409 -0.076634802 0.42307812 0.0013066024 816 220
0.095804937 -0.076695472 0.423154 0.0013117131 815 219
0.097837158 -0.076747186 0.42316535 0.0013492589 779 210
0.10088077 -0.077574603 0.42743528 0.0014167426 737 198
0.10296187 -0.077644177 0.42751044 0.0014910329 665 179
0.10506015 -0.077723823 0.42762408 0.0015187375 661 178
0.10718068 -0.077816673 0.42779258 0.0015039137 644 173
0.10939205 -0.077970862 0.42827988 0.0015081117 650 175
0.11194772 -0.07836052 0.43003994 0.0015836178 607 163
0.11592717 -0.079715498 0.4370701 0.0017158501 585 157
0.11919191 -0.08054056 0.44116414 0.0017399158 509 137
0.1225007 -0.081366792 0.44523525 0.0019330765 481 129
0.1264285 -0.082569607 0.45133445 0.0019032242 445 120
0.12770648 -0.082030743 0.44788784 0.0016465726 553 149
0.12958315 -0.081887685 0.44658422 0.0015607262 622 167
0.13177057 -0.081942402 0.4463371 0.0016038894 579 156
0.13556853 -0.082981229 0.45141971 0.0017525651 511 137
0.13939109 -0.084002778 0.4563697 0.0019326712 477 128
0.14459239 -0.085811473 0.46555048 0.0019051445 456 123
0.15119407 -0.088384598 0.47881916 0.001965093 421 113
0.15384971 -0.088609017 0.47931519 0.0017422901 519 140
0.15554951 -0.088284418 0.47681507 0.0015786835 589 158
0.15701117 -0.087835893 0.47362512 0.0015337785 654 176
0.15870117 -0.087526001 0.47116208 0.0015134334 675 182
0.16097905 -0.087544441 0.47044191 0.001551289 640 172
0.16331913 -0.087595738 0.46987045 0.001566611 625 168
0.16482325 -0.087203361 0.46689549 0.0014736187 664 179
0.16553919 -0.086410061 0.46175939 0.0014460237 678 182
0.16728564 -0.086168535 0.4595567 0.0014093432 710 191
0.16939133 -0.086115949 0.45833957 0.0013745489 745 201
0.17153153 -0.086082004 0.4571985 0.0013611399 745 201
0.17341034 -0.085919425 0.45535335 0.0013805298 734 198
0.17536035 -0.08579576 0.45369604 0.001393704 738 199
0.17718431 -0.085614249 0.45171669 0.0014618894 678 182
0.17838117 -0.085137889 0.44817171 0.001386815 727 196
0.18001077 -0.084877074 0.44575509 0.0014215058 736 198
0.18260875 -0.085073642 0.44572875 0.001613687 568 153
0.18916783 -0.087089181 0.45519561 0.0025081742 324 87
0.19293302 -0.087786458 0.45773232 0.0025884528 287 77
0.19565333 -0.08799769 0.45772171 0.0023028064 331 89
0.2019721 -0.089804128 0.4659861 0.0025880593 275 74
nan nan nan 0 199 53
0.2604526 -0.11322528 0.58470243 0.0057019321 107 28
nan nan nan 0 88 23
nan nan nan 0 103 27
nan nan nan 0 115 31
nan nan nan 0 124 33
nan nan nan 0 117 31
0.3010191 -0.12265815 0.62523419 0.0063404464 106 28
nan nan nan 0 94 25
nan nan nan 0 67 18
nan nan nan 0 67 18
nan nan nan 0 97 26
0.27669191 -0.10714863 0.5421319 0.0064572087 89 24
0.28143606 -0.1079144 0.54548281 0.0059335046 101 27
nan nan nan 0 90 24
nan nan nan 0 85 22
0.32168382 -0.11981358 0.60460973 0.0094017154 72 19
-0.34188783 -0.10985698 0.57641041 0.00739404 79 21
nan nan nan 0 32 8
nan nan nan 0 17 4
-0.38858512 -0.12811144 0.66847563 0.023596151 26 7
nan nan nan 0 25 6
-0.32518759 -0.10910301 0.56761581 0.011895364 56 15
-0.31667808 -0.10719428 0.55700195 0.0071707675 90 24
nan nan nan 0 46 12
nan nan nan 0 27 7
nan nan nan 0 63 17
-0.26028097 -0.091358878 0.47325224 0.005048146 125 33
nan nan nan 0 73 19
nan nan nan 0 49 13
nan nan nan 0 124 33
nan nan nan 0 132 35
nan nan nan 0 162 43
-0.34530586 -0.128313 0.66556025 0.015954221 43 11
nan nan nan 0 43 11
nan nan nan 0 161 43
nan nan nan 0 243 65
nan nan nan 0 137 36
nan nan nan 0 215 58
nan nan nan 0 168 45
nan nan nan 0 96 25
nan nan nan 0 183 49
nan nan nan 0 183 49
nan nan nan 0 72 19
nan nan nan 0 65 17
nan nan nan 0 230 62
-0.20483008 -0.087196536 0.46310759 0.0019226826 452 121
-0.20132388 -0.086674802 0.46145323 0.0017008561 530 143
-0.19924188 -0.086761296 0.46304074 0.0017333637 505 136
-0.19632593 -0.086482421 0.46267974 0.0017945354 478 128
-0.19360977 -0.086286053 0.46275303 0.0018964317 447 120
-0.19152285 -0.086368792 0.46431619 0.0021883529 404 109
-0.1929775 -0.088069782 0.47459272 0.0024639568 338 91
-0.19032782 -0.087916255 0.47488248 0.0022242998 357 96
-0.18601799 -0.086982667 0.470929 0.0019598401 430 116
-0.184719 -0.08745122 0.4745425 0.0023773939 329 88
-0.18257944 -0.087528646 0.47601953 0.0024177767 322 86
-0.17811458 -0.086479038 0.47133315 0.0021362251 370 99
-0.17595288 -0.086534984 0.47263676 0.0023655915 315 85
-0.17339833 -0.086396657 0.47285321 0.0020504566 391 105
-0.17279314 -0.087238833 0.47841766 0.0030575863 232 62
-0.16984132 -0.086902991 0.47750059 0.0028281321 258 69
-0.16544715 -0.085809894 0.47238049 0.0018996547 453 122
-0.16286834 -0.085641123 0.47230822 0.0023686474 323 87
-0.15369166 -0.081949592 0.45274305 0.002173403 395 106
-0.15053225 -0.081407107 0.45050803 0.0017305145 563 151
-0.14673658 -0.080499895 0.44621527 0.0016439628 561 151
-0.14407319 -0.080196388 0.44523212 0.0017522583 511 137
-0.14104037 -0.07967516 0.44300789 0.0017287822 510 137
-0.13549553 -0.077697709 0.43264142 0.0014881411 690 186
-0.13283509 -0.077339061 0.43124595 0.00138116 773 208
-0.13030203 -0.077044532 0.43017948 0.0013515374 760 205
-0.12813228 -0.076958932 0.43025371 0.0013706223 768 207
-0.12564005 -0.076673783 0.42918718 0.0013026403 796 214
-0.12326809 -0.076453902 0.42846054 0.0013433434 814 219
-0.12231056 -0.077118561 0.43267226 0.0015547408 636 171
-0.12196809 -0.078199983 0.43921176 0.001701689 523 141
-0.11897109 -0.077587366 0.43621871 0.0016640369 584 157
-0.11761608 -0.078042887 0.43920979 0.0018164136 506 136
-0.11512475 -0.077747189 0.43795431 0.0017576484 521 140
-0.10999224 -0.075624853 0.42637795 0.0015057429 627 169
-0.10610311 -0.074294969 0.41923425 0.0014166858 738 199
-0.10399596 -0.074186325 0.41895774 0.001340869 767 206
-0.10101502 -0.073438302 0.41504994 0.0014124463 764 206
-0.099268846 -0.073576264 0.41613078 0.0015077536 646 174
-0.096887961 -0.073239937 0.41451284 0.0014783102 682 184
-0.094472356 -0.072863176 0.41264826 0.0013472751 777 209
-0.092506036 -0.072824501 0.41268253 0.0014145374 756 204
-0.090404399 -0.072675407 0.4120765 0.0013093968 807 217
-0.088350475 -0.072559059 0.41164199 0.0013618547 784 211
-0.085952781 -0.072149009 0.40952671 0.0013313042 800 215
-0.083951116 -0.072060376 0.40922213 0.0012956563 833 224
-0.081983879 -0.071997881 0.40905374 0.0012987164 818 220
-0.080155686 -0.072057411 0.40956721 0.0013389094 794 214
-0.07818076 -0.071984738 0.4093183 0.0013659388 766 206
-0.076591186 -0.072272077 0.41110644 0.0013988029 730 196
-0.075034536 -0.0726059 0.41315025 0.0014794281 691 186
-0.073050953 -0.072533265 0.41287205 0.0014580272 712 192
-0.069922887 -0.07128986 0.40591806 0.0013373264 786 212
-0.068730339 -0.072005667 0.41011003 0.0013452774 770 207
-0.067277014 -0.072481118 0.41292661 0.0014167944 714 192
-0.0654222 -0.072539143 0.41335785 0.0014206971 707 190
-0.063579127 -0.072614059 0.41387799 0.0014754485 677 182
-0.061699342 -0.072650388 0.41417107 0.0014918011 654 176
-0.059703093 -0.072547518 0.41366369 0.0015339545 673 181
-0.057194944 -0.071795285 0.40944636 0.0013440744 795 214
-0.055371452 -0.071880437 0.40999791 0.0013262775 795 214
-0.053561866 -0.071990319 0.41068497 0.0014356931 763 205
-0.05172573 -0.072071269 0.4112018 0.0014942826 710 191
-0.050350495 -0.072825 0.41555268 0.0014718587 679 183
-0.048581474 -0.073046274 0.41686124 0.0015061424 653 176
-0.046636354 -0.073010102 0.41669622 0.0014965222 691 186
-0.044685937 -0.072962165 0.41645992 0.0014529852 731 197
-0.042978443 -0.07332436 0.41856089 0.0014468237 693 187
-0.041355472 -0.073871613 0.42171493 0.001516273 641 172
-0.040550567 -0.076006159 0.43392828 0.0016033005 595 160
-0.039827406 -0.078523368 0.44832462 0.0018121619 488 131
-0.037605304 -0.078199014 0.44649497 0.0017103396 535 144
-0.035669517 -0.078466959 0.44804451 0.0018199185 530 143
-0.034033768 -0.079468414 0.45378011 0.0018362209 480 129
-0.031651147 -0.078742892 0.44965219 0.001782541 516 139
-0.029752987 -0.079205416 0.45230636 0.0017296973 531 143
-0.027816534 -0.079627998 0.45473072 0.0017922964 507 136
-0.025841091 -0.079998717 0.45685744 0.0017562945 524 141
-0.023716161 -0.079931356 0.45648095 0.0018100225 500 134
-0.021492314 -0.079485066 0.45393902 0.0018526184 511 137
-0.019502291 -0.07990054 0.45631754 0.0019070734 511 137
-0.018250143 -0.083804734 0.47861961 0.0019353998 455 122
-0.016164921 -0.084430821 0.48219928 0.0020029217 421 113
-0.01395852 -0.084522642 0.48272714 0.0021108419 423 114
-0.011577781 -0.083393529 0.47628102 0.0019439548 457 123
-0.0093827164 -0.083386473 0.47624281 0.0019349416 445 120
-0.007365461 -0.08543767 0.48795936 0.0020851023 398 107
-0.0051146136 -0.085391097 0.48769435 0.0022309748 402 108
-0.0028780636 -0.085697226 0.48944348 0.0019904845 413 111
-0.00061331602 -0.084341221 0.48169914 0.0020071357 415 111
0.0016448934 -0.086389616 0.49339819 0.0021565284 411 110
0.0039645866 -0.08741685 0.49926451 0.0022616172 385 103
0.0063211503 -0.088204257 0.50376081 0.0021760063 372 100
0.0086351829 -0.088134646 0.50336194 0.002263804 378 102
0.010663591 -0.085796468 0.49000603 0.0020217707 421 113
0.012881391 -0.085532859 0.48849824 0.0020238766 447 120
0.015410895 -0.087109581 0.49750024 0.0020695804 402 108
0.017931856 -0.088235974 0.5039295 0.002214859 392 105
0.020199459 -0.08800035 0.50257903 0.0022288202 401 108
0.02201478 -0.086045429 0.49140877 0.0019434093 431 116
0.024276948 -0.086038761 0.491364 0.0019684867 432 116
0.027125552 -0.087934323 0.50218129 0.0020876438 390 105
0.029459879 -0.08799579 0.50252265 0.002249026 365 98
0.031398114 -0.086951382 0.49654713 0.0022121491 395 106
0.033216339 -0.085739069 0.48961115 0.0020427466 395 106
0.034678992 -0.083821543 0.47864643 0.0018999955 451 121
0.035723053 -0.081182048 0.46355766 0.0017455843 503 135
0.037827913 -0.081115089 0.46315652 0.0018484194 467 126
0.040042441 -0.081277892 0.4640646 0.0019074134 442 119
0.041319657 -0.079618104 0.45456395 0.0016594551 544 146
0.043187104 -0.079200916 0.45215505 0.0016321485 579 156
0.044996925 -0.078721322 0.44938689 0.0015745133 605 163
0.047142193 -0.078844979 0.45005879 0.0016598493 545 147
0.048515514 -0.077721551 0.44360879 0.0015779736 589 158
0.050340794 -0.077383757 0.4416393 0.0015095164 634 171
0.052125882 -0.077012844 0.43947667 0.0015039613 678 182
0.053903889 -0.076659612 0.43741056 0.001437017 689 185
0.056119882 -0.076932296 0.43891072 0.0014556292 682 184
0.057868991 -0.076568238 0.43677267 0.0014343642 698 188
0.05964078 -0.076257646 0.43493447 0.0014931962 655 176
0.061454102 -0.076018684 0.43349907 0.0014726988 690 186
0.063360132 -0.075905845 0.43277657 0.0014557143 721 194
0.065166257 -0.075683862 0.43142536 0.0013814447 740 199
0.067268573 -0.075808845 0.43204477 0.001429021 741 199
0.0692036 -0.075743534 0.43157181 0.0013765021 773 208
0.071449332 -0.076012425 0.43299454 0.0014037462 743 200
0.07355015 -0.076116696 0.43347067 0.0014386143 723 195
0.074933305 -0.075492434 0.42978978 0.0014833629 725 195
0.076739907 -0.07531599 0.42865029 0.0013978237 723 195
0.078677386 -0.075273648 0.42826468 0.0014141449 784 211
0.080791265 -0.075398013 0.42881706 0.0013734198 742 200
0.082000211 -0.074692138 0.42463821 0.0012852883 846 228
0.084106751 -0.074817762 0.4251768 0.0013721077 784 211
0.085865922 -0.074635699 0.42395541 0.0012561146 869 234
0.087622188 -0.074459314 0.42275521 0.0012680789 856 230
0.089412563 -0.074319005 0.42174822 0.0012427758 904 243
0.091537669 -0.07445696 0.42230746 0.0012492759 866 233
0.093514062 -0.074470706 0.42214826 0.0012131358 921 248
0.095480949 -0.074476473 0.4219299 0.001297033 878 236
0.097443774 -0.074478902 0.42167807 0.0012899791 841 226
0.099415682 -0.074488044 0.42144924 0.0013678113 815 219
0.10156312 -0.074625812 0.42193219 0.0013603506 766 206
0.10475925 -0.075514272 0.4266392 0.0013802922 753 203
0.10681863 -0.075565509 0.42659542 0.0013688966 761 205
0.10879651 -0.075558275 0.42620397 0.0014471192 699 188
0.11240222 -0.076661535 0.4320533 0.0014544387 681 183
0.11449859 -0.076714635 0.4319599 0.001581801 642 173
0.117886 -0.077615887 0.43661788 0.0016402382 590 159
0.12177688 -0.078812294 0.44290477 0.0017959803 518 139
0.12751423 -0.081143633 0.45552835 0.0020166975 430 116
0.12850645 -0.080428362 0.45101744 0.0017993056 483 130
0.12969905 -0.079859629 0.44731408 0.0017251063 543 146
0.13157335 -0.079722106 0.44600785 0.001595306 592 159
0.133674 -0.07972388 0.44545871 0.0017081925 525 141
0.13692868 -0.080403239 0.44866708 0.0017291857 541 145
0.14209615 -0.082168005 0.4578895 0.0019084013 488 131
0.15103184 -0.086026236 0.47870886 0.0021964726 389 104
0.15392178 -0.086377755 0.47995421 0.0019596661 439 118
0.15541981 -0.085949279 0.4768391 0.0017502289 498 134
0.15746729 -0.085832626 0.47543117 0.001617233 575 155
0.15935729 -0.085634626 0.47354808 0.0015415599 621 167
0.16107659 -0.085351698 0.4711723 0.0015581542 606 163
0.16298598 -0.085175894 0.46936473 0.001615054 605 163
0.16464885 -0.084877774 0.4668605 0.0015342718 644 173
0.16550823 -0.084178977 0.46213573 0.0015097013 686 185
0.16709493 -0.083863668 0.45950076 0.0014117099 752 202
0.16918376 -0.083805308 0.4582521 0.0014238335 727 196
0.17121933 -0.083722413 0.45684576 0.001370299 741 199
0.17253236 -0.083292797 0.45352989 0.0013400639 777 209
0.17507982 -0.083462432 0.45345747 0.0013848566 735 198
0.17735523 -0.083499782 0.45264304 0.001527376 648 174
0.17786214 -0.082713775 0.44735569 0.0014554308 676 182
0.17994782 -0.082672104 0.44608793 0.0014141365 705 190
0.18246825 -0.08282879 0.44587505 0.0015826056 593 160
0.18649228 -0.083656229 0.44924948 0.0021436729 382 103
0.1927864 -0.085470803 0.45788339 0.0026478874 275 74
0.19627678 -0.086014867 0.45967674 0.0028004041 246 66
0.19884996 -0.086149134 0.45927241 0.0028934744 243 65
nan nan nan 0 220 59
nan nan nan 0 118 31
0.28011689 -0.117344 0.62107348 0.0068868278 94 25
0.28732252 -0.11905029 0.62863684 0.0061604627 97 26
0.27435455 -0.11245112 0.5924443 0.0058562001 101 27
nan nan nan 0 113 30
0.29887149 -0.11991353 0.62905562 0.005465453 109 29
0.3033368 -0.12043367 0.6305294 0.0054694312 108 29
0.32022232 -0.1258233 0.65752083 0.0083870282 79 21
0.32516912 -0.12645958 0.6597085 0.012124797 49 13
nan nan nan 0 58 15
0.29197195 -0.11127178 0.57875615 0.0065197861 90 24
0.29668587 -0.11194573 0.58154964 0.0067381682 87 23
nan nan nan 0 77 20
nan nan nan 0 95 25
nan nan nan 0 83 22
0.29239699 -0.1061134 0.5496245 0.008685925 78 21
-0.31493488 -0.098533645 0.53062642 0.0048315795 125 33
nan nan nan 0 89 24
nan nan nan 0 37 9
nan nan nan 0 25 6
nan nan nan 0 31 8
nan nan nan 0 125 33
-0.26025397 -0.08577697 0.45758811 0.0040394734 171 46
nan nan nan 0 97 26
nan nan nan 0 110 29
nan nan nan 0 64 17
nan nan nan 0 97 26
nan nan nan 0 157 42
nan nan nan 0 59 15
nan nan nan 0 58 15
-0.3041507 -0.10793559 0.57436389 0.0053986427 109 29
nan nan nan 0 47 12
-0.34944171 -0.12643321 0.67374653 0.017715838 34 9
nan nan nan 0 26 7
nan nan nan 0 66 17
nan nan nan 0 146 39
nan nan nan 0 171 46
nan nan nan 0 253 68
nan nan nan 0 164 44
nan nan nan 0 107 28
nan nan nan 0 74 19
-0.25939983 -0.10291053 0.55664581 0.0087124752 74 19
nan nan nan 0 41 11
nan nan nan 0 113 30
-0.20732012 -0.084982418 0.46289551 0.0020062404 424 114
-0.20347275 -0.084339589 0.46050715 0.0016903469 523 141
-0.20120354 -0.084343746 0.4616558 0.0016509807 572 154
-0.20089577 -0.085179642 0.46737546 0.0021724144 358 96
-0.19471006 -0.083513804 0.45935887 0.0023291835 331 89
nan nan nan 0 207 55
-0.19183427 -0.084232971 0.46556872 0.0018755652 440 118
-0.18919428 -0.084071338 0.4657858 0.0019124515 476 128
-0.18848029 -0.084772021 0.47077337 0.0020828603 394 106
-0.18474141 -0.084112719 0.4681918 0.001834288 464 125
-0.18266398 -0.084202871 0.46975511 0.002250233 326 87
-0.18216194 -0.085030682 0.47542354 0.0021767449 384 103
-0.17659537 -0.083485372 0.46779153 0.0021703197 364 98
-0.17547768 -0.084030494 0.47183618 0.0032553799 207 55
-0.17505138 -0.084925331 0.47783542 0.0025112436 296 79
-0.16999944 -0.083570026 0.47114259 0.0022433728 346 93
-0.16836545 -0.083881073 0.47380528 0.0023861306 332 89
-0.1626215 -0.082125068 0.46474949 0.0019925905 422 113
-0.15983583 -0.081835099 0.4639414 0.0022276652 349 94
-0.1516048 -0.078709856 0.44699854 0.0017664967 510 137
-0.14761861 -0.077730872 0.44217801 0.0015438411 625 168
-0.1445082 -0.077191427 0.43981776 0.0015159049 685 184
-0.14369068 -0.077878915 0.44442382 0.0017661661 506 136
-0.14109212 -0.077607192 0.44353437 0.0018665454 462 124
-0.13534483 -0.075569183 0.43250635 0.0016445616 584 157
-0.13312833 -0.075470321 0.43253505 0.0015530237 598 161
-0.13060138 -0.075189658 0.43149531 0.0015570988 600 161
-0.12823302 -0.07499288 0.43091032 0.0014988672 631 170
-0.1259273 -0.074827008 0.43047771 0.0014781656 651 175
-0.12365981 -0.074678794 0.43012249 0.001432773 704 189
-0.12145752 -0.074565686 0.42994624 0.0014038961 707 190
-0.11926645 -0.07445579 0.42976624 0.0015138536 675 182
-0.11939321 -0.075813904 0.43804643 0.0016908166 535 144
-0.11749652 -0.075912155 0.43903542 0.0017144325 518 139
-0.11583629 -0.076169357 0.44092596 0.0018261428 470 126
-0.11257628 -0.075364903 0.43664885 0.001606614 580 156
-0.10955917 -0.074696399 0.43313372 0.0016596253 544 146
-0.10403071 -0.07225845 0.41932619 0.001469922 662 178
-0.10132657 -0.071726501 0.41654935 0.0013810392 728 196
-0.099123254 -0.07153523 0.41573206 0.0013733931 755 203
-0.097181007 -0.071528517 0.41597086 0.0015224388 684 184
-0.094829269 -0.071214013 0.41440368 0.0014209626 695 187
-0.092414036 -0.070837811 0.4124606 0.0013982698 725 195
-0.090187892 -0.070593677 0.41127068 0.0013229775 799 215
-0.088293165 -0.070604041 0.41154933 0.0013468037 769 207
-0.086207524 -0.070458815 0.41090789 0.0014355531 753 203
-0.083848722 -0.070078731 0.40888318 0.0012859678 831 224
-0.082044795 -0.070155539 0.40951163 0.0013889987 781 210
-0.080073319 -0.070089333 0.40929404 0.001310294 811 218
-0.078320138 -0.07021562 0.41018993 0.0013508562 760 205
-0.076503284 -0.070289671 0.41077065 0.0013872852 752 202
-0.074586578 -0.070273422 0.41081387 0.0014014959 758 204
-0.073119216 -0.070690744 0.41338292 0.0014869071 666 179
-0.071032695 -0.070515804 0.41248 0.0013957174 722 194
-0.068617471 -0.069995902 0.40954942 0.0013524143 777 209
-0.066669919 -0.069937125 0.40930772 0.0013632152 765 206
-0.064979859 -0.070152916 0.41066539 0.001403078 726 195
-0.063444309 -0.070553496 0.41309816 0.0015180373 691 186
-0.061669283 -0.070704319 0.41406223 0.0014775289 659 177
-0.059801914 -0.070755549 0.41443655 0.0015067038 649 175
-0.057442047 -0.070208199 0.41129795 0.0014690215 679 183
-0.055522442 -0.070179954 0.41119397 0.0014418848 753 203
-0.053360086 -0.069832027 0.4092111 0.0013176904 825 222
-0.051856369 -0.070352137 0.41230965 0.0013731838 747 201
-0.050186753 -0.070678204 0.41426677 0.001509922 711 191
-0.048278201 -0.070680261 0.41432029 0.0014253678 709 191
-0.046659403 -0.071124166 0.41695991 0.0015038317 648 174
-0.044678587 -0.071030676 0.4164452 0.0014331993 687 185
-0.042935573 -0.071323827 0.41819373 0.0014701171 678 182
-0.04063043 -0.070666835 0.41436774 0.0013455908 790 213
-0.039286215 -0.071698777 0.4204421 0.0014249772 707 190
-0.038538698 -0.073983282 0.43385956 0.0016051086 593 160
-0.037446167 -0.075819202 0.44464484 0.0019179658 500 134
-0.035235241 -0.075472124 0.44262561 0.0016964739 547 147
-0.033114929 -0.075288408 0.44156203 0.0016694939 567 153
-0.031227522 -0.075644813 0.44366428 0.0017179616 532 143
-0.029426465 -0.076274984 0.44737053 0.001763433 503 135
-0.027210772 -0.07584437 0.44485331 0.0017228834 537 144
-0.025189804 -0.075930566 0.445366 0.0016963449 536 144
-0.022840645 -0.074955039 0.43964985 0.0016982886 569 153
-0.020786483 -0.074851952 0.4390499 0.0016683995 576 155
-0.019023346 -0.075887576 0.44512829 0.0016482808 573 154
nan nan nan 0 568 153
-0.015258428 -0.077599138 0.45517319 0.00176008 522 140
-0.013008705 -0.076698609 0.44989273 0.0017097789 550 148
-0.010876111 -0.07627818 0.44742805 0.0017048614 557 150
-0.0087817302 -0.075991817 0.44574931 0.0017350663 547 147
nan nan nan 0 495 133
nan nan nan 0 470 126
-0.0027883823 -0.080842264 0.47420239 0.0019881653 454 122
-0.00058542157 -0.078386985 0.45980042 0.0018714226 469 126
0.001528218 -0.078149974 0.45841017 0.0019466126 470 126
nan nan nan 0 474 127
nan nan nan 0 440 118
nan nan nan 0 450 121
0.010228987 -0.08013425 0.47004738 0.0019527684 440 118
0.012167547 -0.078667074 0.46144003 0.0018446627 464 125
nan nan nan 0 467 126
nan nan nan 0 472 127
nan nan nan 0 440 118
nan nan nan 0 470 126
0.022592558 -0.077962391 0.45729238 0.0017733165 515 138
nan nan nan 0 477 128
nan nan nan 0 442 119
0.030330997 -0.081786066 0.47969952 0.0020257216 421 113
0.032301657 -0.081184193 0.47615954 0.0021364396 418 112
0.033724323 -0.079369202 0.46550286 0.0019316078 444 119
0.03575173 -0.079109415 0.46396577 0.0019785874 465 125
0.03783631 -0.078998297 0.46329844 0.0018679637 464 125
0.039968997 -0.07899414 0.46325591 0.0020827793 393 106
0.042195495 -0.079166405 0.46424526 0.0020665762 415 111
0.043229401 -0.0771925 0.45264646 0.0017976112 488 131
0.045046542 -0.076734506 0.44993436 0.0016885923 547 147
0.046916835 -0.076403402 0.44796306 0.0017776561 535 144
0.048991162 -0.076418452 0.4480176 0.0017958276 483 130
0.050865103 -0.076132372 0.44630274 0.0017823011 508 137
0.052488066 -0.075507484 0.44259775 0.001607722 570 153
0.054412398 -0.075346671 0.4416087 0.0016651478 587 158
0.056063287 -0.074832477 0.43854389 0.0015142286 624 168
0.058013089 -0.074739181 0.43794072 0.0014707382 654 176
0.059826449 -0.074482292 0.43637356 0.0015117154 680 183
0.061610065 -0.074206308 0.43468881 0.0015140916 646 174
0.063516766 -0.074091293 0.43394101 0.0015608729 673 181
0.065440834 -0.074002951 0.43334284 0.0015680485 640 172
0.067142956 -0.07367631 0.43134248 0.0014166884 699 188
0.069138981 -0.07368169 0.43127882 0.0014063205 737 198
0.071048267 -0.073596917 0.43067962 0.0014240468 741 199
0.072833069 -0.073391318 0.42936537 0.0014054801 735 198
0.074694701 -0.073272005 0.42854759 0.001370372 750 202
0.076620288 -0.073219948 0.42811435 0.0014162021 720 194
0.078777604 -0.073386386 0.42894876 0.001370183 743 200
0.080622561 -0.073260829 0.42806625 0.0013853722 730 196
0.082124181 -0.072836764 0.42543012 0.0013026121 806 217
0.084029168 -0.072781935 0.42494074 0.0013557031 759 204
0.085776396 -0.072596096 0.42367566 0.0012704226 841 226
0.087562218 -0.072450496 0.42263439 0.0012843575 849 229
0.089526132 -0.072455406 0.42245904 0.0012513795 868 234
0.091619469 -0.072562605 0.42286706 0.0012478376 877 236
0.093412511 -0.072432458 0.4218787 0.0012176709 896 241
0.095256336 -0.072346233 0.42113295 0.0012442503 927 250
0.097139277 -0.072292589 0.42056295 0.0012241 900 242
0.099048771 -0.072260417 0.42010349 0.0012628139 858 231
0.10096312 -0.072232977 0.41965646 0.0012695881 843 227
0.10293523 -0.072247095 0.41943502 0.0013042442 828 223
0.104671 -0.07209792 0.41824979 0.0012874588 849 229
0.10769821 -0.072827473 0.4221426 0.0013382501 788 212
0.10932589 -0.072601452 0.42047662 0.0013226451 795 214
0.11303561 -0.073741667 0.42670044 0.0014500234 690 186
0.11617345 -0.074475758 0.43054557 0.0015148739 635 171
0.11855505 -0.074708298 0.43146637 0.0016164487 577 155
0.12478324 -0.077316433 0.44607002 0.0017593006 502 135
0.12947738 -0.078903802 0.45473766 0.0019821182 422 113
0.13000166 -0.077939771 0.44867507 0.0019171283 478 128
0.13109191 -0.077340402 0.44469935 0.0015816784 588 158
0.13315706 -0.07732597 0.4440681 0.0016724677 577 155
0.13512158 -0.077254467 0.44308633 0.0016169547 601 162
0.14126636 -0.07953877 0.45557502 0.0017284326 515 138
0.14850505 -0.082361318 0.4710812 0.0020592015 403 108
0.15358631 -0.083921649 0.47930583 0.0020592627 395 106
0.15601321 -0.084007286 0.47906697 0.0019851348 435 117
0.15710919 -0.083384104 0.47476324 0.0017486245 503 135
0.15892588 -0.083155654 0.47268698 0.0017425034 544 146
0.16096823 -0.083049998 0.47128427 0.0016508489 574 154
0.16288248 -0.082882069 0.46950307 0.0016041481 576 155
0.16423623 -0.082437344 0.46613255 0.0015681968 632 170
0.16494876 -0.081686974 0.46101916 0.0014095688 716 193
0.1664249 -0.081329592 0.4581089 0.0013247944 782 211
0.16914287 -0.081580482 0.4585999 0.0014522276 729 196
0.17049408 -0.081174187 0.45537302 0.001388585 731 197
0.17237987 -0.081029497 0.45359582 0.0013607512 738 199
0.1745715 -0.081030399 0.45261225 0.0014099847 699 188
0.1772815 -0.081268907 0.45293123 0.0015485741 607 163
0.17816629 -0.08067511 0.44859618 0.0015206118 628 169
0.17985849 -0.08045686 0.44634214 0.0014544899 677 182
0.18160643 -0.08026845 0.44424376 0.0014846 651 175
0.1848641 -0.080743901 0.44580355 0.0018667985 471 127
0.19244377 -0.083073981 0.45755666 0.0026279087 277 74
0.19583766 -0.083564244 0.45913351 0.0028971713 251 67
0.19814314 -0.083584189 0.45811853 0.0029126024 277 74
nan nan nan 0 207 55
nan nan nan 0 128 34
0.28585473 -0.11659682 0.63441747 0.0057166559 108 29
0.28502616 -0.11499135 0.6242047 0.0058175107 105 28
nan nan nan 0 115 31
nan nan nan 0 121 32
0.29931414 -0.11693125 0.63050413 0.0053548999 125 33
0.30888301 -0.11940885 0.64255023 0.0064930273 110 29
0.3217392 -0.12309293 0.66110325 0.009569387 72 19
0.32605579 -0.12346791 0.66193414 0.011384023 49 13
nan nan nan 0 88 23
0.2843816 -0.10552737 0.56399667 0.0059511042 103 27
0.29707924 -0.1091447 0.58257407 0.0071703531 93 25
0.29897723 -0.1087622 0.57988799 0.0077261217 88 23
nan nan nan 0 85 22
nan nan nan 0 104 28
0.26889607 -0.095017031 0.50551659 0.0070615788 81 21
-0.31418368 -0.095642246 0.52903414 0.0051100496 119 32
-0.31328964 -0.096183307 0.53101122 0.0050843023 129 34
nan nan nan 0 99 26
nan nan nan 0 49 13
nan nan nan 0 32 8
nan nan nan 0 105 28
nan nan nan 0 145 39
nan nan nan 0 124 33
nan nan nan 0 122 32
nan nan nan 0 42 11
nan nan nan 0 70 18
nan nan nan 0 80 21
nan nan nan 0 31 8
nan nan nan 0 48 12
nan nan nan 0 63 17
nan nan nan 0 31 8
nan nan nan 0 30 8
nan nan nan 0 28 7
nan nan nan 0 48 12
nan nan nan 0 64 17
nan nan nan 0 100 26
nan nan nan 0 222 59
nan nan nan 0 194 52
nan nan nan 0 57 15
-0.26722631 -0.10205646 0.56659287 0.014890265 46 12
-0.26355609 -0.10173389 0.56606334 0.012461463 43 11
-0.25981861 -0.10137805 0.56538588 0.0086941179 66 17
-0.21712881 -0.085649192 0.47879764 0.0032976994 235 63
-0.2074867 -0.082752362 0.46372047 0.0020885323 391 105
-0.20470956 -0.08255925 0.46376932 0.0024196489 341 92
-0.2034021 -0.082961209 0.46717456 0.0020942211 365 98
-0.20180413 -0.083252557 0.46997157 0.0025665625 282 76
nan nan nan 0 209 56
-0.19899018 -0.084016986 0.47661608 0.0034300261 212 57
-0.19165625 -0.081880651 0.46562093 0.0020765446 439 118
-0.1902706 -0.082264811 0.46892214 0.0018444243 445 120
-0.18737781 -0.081998751 0.46850324 0.0018533078 454 122
-0.18453556 -0.08174853 0.46814972 0.0018780148 443 119
-0.18292092 -0.082042679 0.47089359 0.00336004 199 53
-0.17726792 -0.080510147 0.46311513 0.0025587273 295 79
-0.17862532 -0.082163036 0.47363737 0.0021405192 362 97
-0.17481083 -0.081448995 0.47050154 0.0021775137 371 100
-0.1718681 -0.081127748 0.46959624 0.0023282401 375 101
-0.16894244 -0.080806129 0.46865448 0.0024820198 297 80
-0.1652517 -0.080104955 0.46547282 0.0026127552 287 77
-0.16251551 -0.079853699 0.46486762 0.0020157569 405 109
-0.15485372 -0.077141747 0.44987905 0.0018972966 453 122
-0.15142392 -0.076491475 0.44685274 0.0018704137 487 131
-0.14815824 -0.075906791 0.44417092 0.0015726846 598 161
-0.14444683 -0.07507357 0.43999523 0.0014421092 679 183
-0.14272481 -0.075265035 0.44179335 0.0016253042 563 151
-0.14143343 -0.075692654 0.44495782 0.0020147117 407 109
-0.13774489 -0.074830905 0.44051403 0.0018712648 483 130
-0.13325062 -0.073498324 0.43325627 0.0016690866 542 146
-0.12907247 -0.072301365 0.42675444 0.0016746101 607 163
-0.12684366 -0.072175764 0.42654333 0.00159525 593 160
-0.12569681 -0.072671674 0.4299854 0.0015531159 619 167
-0.1237042 -0.072686814 0.43056446 0.0015778465 596 160
-0.12175754 -0.072729893 0.43128797 0.0016348826 567 153
-0.11903448 -0.072302833 0.42920023 0.0016160319 576 155
-0.11674472 -0.072128832 0.42859063 0.0016635855 582 157
-0.11689018 -0.0734796 0.43702808 0.0018300504 477 128
-0.11601532 -0.074225552 0.44186035 0.0021573817 406 109
-0.11467923 -0.074698083 0.44505206 0.0018498334 459 123
-0.11057444 -0.073351361 0.43738186 0.0016848462 573 154
-0.10710704 -0.072384834 0.43194991 0.0018163942 515 138
-0.10190654 -0.070187666 0.41914326 0.001555225 600 161
-0.099223517 -0.069672517 0.41635352 0.0014278976 711 191
-0.097274452 -0.069662496 0.41656473 0.0015085 679 183
-0.095331758 -0.06965673 0.41678649 0.0015176869 674 181
-0.092933305 -0.069310814 0.41495749 0.001539656 619 167
-0.090349197 -0.068808854 0.41217765 0.0014253566 699 188
-0.087902658 -0.068392254 0.40989301 0.0013786338 790 213
-0.086082682 -0.068455502 0.41047052 0.0013903331 761 205
-0.083930306 -0.068251312 0.40943187 0.001373234 742 200
-0.081904396 -0.068142891 0.40895528 0.0013193898 789 212
-0.080231518 -0.06833002 0.41024148 0.0013428886 765 206
-0.078238048 -0.068246558 0.40989262 0.0014232636 737 198
-0.076263733 -0.068176061 0.40961114 0.001393441 747 201
-0.074486658 -0.068282805 0.41038468 0.0014515575 701 189
-0.072478265 -0.068177529 0.40987468 0.0014436195 695 187
-0.071132421 -0.06870655 0.41316977 0.0014865486 666 179
-0.068975881 -0.068460107 0.41179353 0.0013867887 734 198
-0.066831917 -0.068212539 0.41040155 0.0013689159 754 203
-0.064858206 -0.068129353 0.40999049 0.0013719109 751 202
-0.063224487 -0.068409048 0.41175619 0.0015077515 693 187
-0.061443333 -0.068541609 0.41262978 0.0014468824 708 191
-0.059293196 -0.068257861 0.41099051 0.0014603804 709 191
-0.057622176 -0.068525158 0.4126628 0.0014838268 667 179
-0.055599976 -0.068378814 0.41183862 0.0014793321 727 196
-0.053685874 -0.06835977 0.41177547 0.0013562106 758 204
-0.051842086 -0.068432137 0.41225791 0.001323755 809 218
-0.049856193 -0.06831529 0.41159567 0.0013827333 786 212
-0.048096962 -0.068512082 0.4128187 0.0014288106 728 196
-0.046350509 -0.068744034 0.4142496 0.0014030985 739 199
-0.044731695 -0.069193341 0.41698682 0.0014687574 677 182
-0.042794295 -0.069168068 0.41686064 0.001525413 680 183
-0.040318631 -0.068229541 0.41122678 0.0013772552 759 204
-0.038909268 -0.069091886 0.41644409 0.0013885881 774 208
-0.03728855 -0.069648936 0.41981885 0.0014520602 697 188
-0.035817366 -0.070561521 0.42533457 0.0016317677 624 168
-0.035043862 -0.073033765 0.44024995 0.0017055788 582 157
-0.032971285 -0.07293611 0.43967223 0.0017504271 547 147
-0.030743767 -0.072460473 0.43681404 0.0016329915 574 154
-0.029309662 -0.073919199 0.44561526 0.0017080778 540 145
-0.027247462 -0.0738943 0.44547135 0.0018100041 491 132
-0.024803204 -0.072744824 0.43854645 0.001650363 592 159
-0.02272439 -0.072558306 0.43742567 0.001636035 610 164
-0.02056752 -0.07206203 0.43443653 0.0015506027 618 166
-0.018473549 -0.071702875 0.43227336 0.0015955663 627 169
-0.016459361 -0.071604013 0.4316788 0.0015177123 642 173
-0.014866731 -0.073563948 0.44349566 0.0016659527 589 158
-0.012714325 -0.072937205 0.4397178 0.0015585239 621 167
-0.010552984 -0.072011925 0.43413988 0.0015417455 628 169
-0.0085571082 -0.072047055 0.4343518 0.0015787698 612 165
-0.0066393302 -0.072961859 0.43986696 0.00167752 567 153
-0.0046176808 -0.073037475 0.44032285 0.0016893502 543 146
-0.0026432185 -0.074562691 0.44951791 0.001823472 508 137
-0.00056592963 -0.073729299 0.44449353 0.0017517654 519 140
0.0014767132 -0.07347542 0.44296306 0.0017063963 536 144
0.0035221376 -0.07357423 0.44355878 0.0016686147 556 150
0.0056384248 -0.074537255 0.44936457 0.0018800783 508 137
0.007771709 -0.075147375 0.45304281 0.0019089453 493 133
0.0098595414 -0.075152725 0.45307502 0.0018011464 499 134
0.01179036 -0.074168488 0.44714108 0.0017921701 512 138
0.013754378 -0.073654816 0.44404379 0.0018013754 529 142
0.015937613 -0.074296065 0.44790894 0.0017449871 537 144
0.018084686 -0.074641049 0.44998759 0.0017619344 504 136
0.019985201 -0.074002109 0.44613385 0.0017539826 523 141
0.021916825 -0.073586784 0.4436276 0.001678849 550 148
0.023935545 -0.073509805 0.4431603 0.0017892747 554 149
0.026072344 -0.073779061 0.44477937 0.0018032147 542 146
0.028246215 -0.074106336 0.44674695 0.001733111 521 140
0.030334327 -0.074179441 0.44718096 0.0017837858 524 141
0.032091245 -0.073484845 0.44298548 0.0017739987 522 140
0.034027807 -0.073260099 0.44162065 0.0017169868 533 143
0.036164101 -0.073466457 0.44285265 0.0017190241 536 144
0.038418945 -0.073878735 0.44532356 0.0017991514 501 135
0.041412424 -0.075597577 0.45566714 0.0019453417 464 125
0.042931493 -0.07458891 0.44956765 0.0018694153 503 135
0.044384181 -0.073563084 0.44336224 0.0017121712 567 153
0.046816692 -0.074180052 0.44705462 0.0017176803 528 142
0.049011812 -0.074384719 0.4482584 0.0019508394 480 129
0.051205721 -0.074571066 0.4493475 0.0019435723 467 126
0.052800998 -0.073905028 0.44529638 0.0017999391 489 131
0.054707587 -0.073708266 0.44406852 0.0018110735 502 135
0.05692818 -0.073933512 0.44537812 0.0017575823 505 136
0.058209985 -0.072966293 0.43949968 0.0017193281 534 144
0.060012884 -0.072695367 0.43781039 0.001611206 609 164
0.061793905 -0.072416455 0.43606746 0.0015679765 590 159
0.063749574 -0.072353326 0.43561804 0.0015187273 631 170
0.065738551 -0.072330713 0.43540582 0.0015768438 603 162
0.067489006 -0.072054796 0.43366212 0.0016385833 624 168
0.070010379 -0.072594121 0.43681708 0.001578946 590 159
0.071831957 -0.07239794 0.43553796 0.0015376046 605 163
0.073230579 -0.071797773 0.43182129 0.001497924 636 171
0.074725308 -0.07132116 0.42884073 0.0014138003 697 188
0.07683038 -0.071436651 0.42941177 0.0014324724 687 185
0.078810334 -0.071432911 0.42925641 0.0013878023 725 195
0.080943771 -0.071565069 0.42990747 0.0014482766 697 188
0.08242248 -0.071125887 0.42711648 0.0014482375 708 191
0.084239982 -0.07099279 0.42615387 0.0013835294 731 197
0.086161271 -0.070951231 0.4257299 0.0013247494 774 208
0.087709896 -0.070611544 0.42350614 0.0013365889 830 223
0.089764342 -0.070685007 0.42374885 0.0012983324 805 217
0.091706552 -0.070668824 0.42344132 0.0012693591 841 226
0.09354005 -0.070571326 0.4226335 0.0012871387 820 221
0.095101446 -0.070276745 0.42063305 0.0012110656 915 246
0.097101949 -0.070311964 0.42059317 0.001245809 872 235
0.099210151 -0.070422247 0.42098722 0.0012447975 902 243
0.10083938 -0.070194863 0.4193477 0.0012920524 871 235
0.10256626 -0.070042774 0.41814402 0.0012465083 917 247
0.10449373 -0.070030786 0.41776106 0.0012067268 929 250
0.10657194 -0.07011842 0.41795531 0.0012258311 912 246
0.10870253 -0.070236742 0.41831425 0.0012760853 844 227
0.11155143 -0.070806861 0.42134246 0.0014212804 780 210
0.11406051 -0.071145236 0.42296854 0.0013989876 723 195
0.11761793 -0.072114863 0.42832074 0.0015346012 641 172
0.11992418 -0.07229773 0.42897356 0.0016760156 596 160
0.12737195 -0.075523175 0.44763729 0.0018476191 472 127
0.12943387 -0.075502373 0.44701806 0.0019100859 467 126
0.12997311 -0.074608192 0.44121146 0.0016734981 592 159
0.13208064 -0.074628182 0.4407942 0.0015382634 681 183
0.13444969 -0.074793018 0.44120786 0.0014843857 660 178
0.13923359 -0.076275766 0.44935933 0.0016572813 554 149
0.1458962 -0.078727864 0.46316516 0.0019343984 438 118
0.14863683 -0.079022437 0.46422961 0.0020484345 440 118
0.15391375 -0.080637202 0.47300658 0.0021505544 421 113
0.15761726 -0.081393167 0.47669747 0.0020095014 422 113
0.15862305 -0.08075434 0.47219077 0.0017361301 504 136
0.16061381 -0.080627784 0.47065887 0.0017620655 550 148
0.16239707 -0.080401987 0.46852323 0.001640756 555 149
0.1638771 -0.080034211 0.46553862 0.0015306843 620 167
0.16434972 -0.079190873 0.4597733 0.0014289152 689 185
0.16584775 -0.078857362 0.45695394 0.0013609431 743 200
0.16815636 -0.078912951 0.45636594 0.0014035645 740 199
0.1712997 -0.079353794 0.45797417 0.0015467205 640 172
0.17301276 -0.079129271 0.45571485 0.0015149254 643 173
0.17449839 -0.078807667 0.45287925 0.001510972 638 172
0.17652662 -0.078736059 0.45146275 0.0015322164 624 168
0.17875902 -0.078756146 0.45055181 0.001548622 610 164
0.17806363 -0.077501439 0.44234565 0.0015051404 634 171
0.18008474 -0.077444933 0.44097957 0.0014840806 652 175
0.18377388 -0.078098625 0.44363582 0.0018389311 514 138
0.19132024 -0.080357149 0.45535809 0.0024796992 304 82
0.19368602 -0.080412753 0.45455822 0.0026571397 269 72
0.1977068 -0.081146389 0.45757762 0.0027031319 266 71
nan nan nan 0 182 49
0.2737169 -0.10983959 0.61633897 0.0065167695 98 26
