# .PCD v0.7 - Point Cloud Data file format
VERSION 0.7
FIELDS x y z noise intensity gray
SIZE 4 4 4 4 2 1
TYPE F F F F U U
COUNT 1 1 1 1 1 1
WIDTH 842
HEIGHT 1
VIEWPOINT 0 0 0 1 0 0 0
POINTS 842
DATA ascii
0.044968836 -0.033671577 0.31769612 0.0017828643 509 100
0.04593496 -0.033310778 0.31428126 0.0016475584 563 111
0.047709964 -0.033540685 0.31643575 0.0017021402 526 104
0.049290862 -0.033624548 0.31720817 0.001796012 500 99
0.050827399 -0.033674184 0.31765309 0.0017641961 513 101
0.052243054 -0.033643197 0.31733274 0.0019524657 436 86
0.053506278 -0.033518415 0.31612265 0.0017934997 495 98
0.054484908 -0.033226687 0.31333318 0.0017430349 540 107
0.054843958 -0.032581948 0.30721012 0.0016149767 574 113
0.056157026 -0.032522168 0.30659759 0.0016611088 552 109
0.056917302 -0.032153048 0.3030633 0.001613758 574 113
0.056922697 -0.031385407 0.29576826 0.0015195421 662 131
0.058076721 -0.031272192 0.29463536 0.0015201219 650 128
0.059548888 -0.031331539 0.29512137 0.0015226468 638 126
0.061081447 -0.031419303 0.29586735 0.0015709446 614 121
0.061147384 -0.030765327 0.28962234 0.0014958959 661 131
0.063039824 -0.031038644 0.29209992 0.0015344151 632 125
0.064534388 -0.031108713 0.29265532 0.0015417234 630 124
0.065367438 -0.03086357 0.29023731 0.0015393277 630 124
0.066685244 -0.030852562 0.29001299 0.0015428625 632 125
0.067309134 -0.030527271 0.28682646 0.0015057995 644 127
0.068333901 -0.030392859 0.28542566 0.0014789365 667 132
0.070768513 -0.030878708 0.28983814 0.0015408302 634 125
0.071008056 -0.03040651 0.28524771 0.0014962305 654 129
0.072289616 -0.030389624 0.28492036 0.0014970762 672 133
0.073469877 -0.030331526 0.28419596 0.0014791938 666 132
0.07446786 -0.030201551 0.28278783 0.0014677334 690 136
0.075951301 -0.030269545 0.28322193 0.0014080773 720 142
0.076302923 -0.029891837 0.27947575 0.0013894822 731 144
0.077713244 -0.02993458 0.27965051 0.0013552087 766 151
0.078367546 -0.029689495 0.27712509 0.0013313983 793 157
0.079012834 -0.029448997 0.27463344 0.0013295505 782 155
0.080214664 -0.029420288 0.27410567 0.001310116 806 159
0.082183011 -0.029669201 0.27614865 0.0013692571 754 149
0.083666496 -0.029738085 0.27649882 0.0013677747 761 150
0.085608862 -0.029965501 0.27830529 0.001362524 769 152
0.086932369 -0.029972721 0.27804917 0.0013246174 796 157
0.088034086 -0.029904393 0.27707735 0.0013120725 811 160
0.089312762 -0.029897284 0.27665785 0.0013089969 818 162
0.090628989 -0.029902773 0.27633885 0.001351882 788 156
0.091428734 -0.029740104 0.2744514 0.0012982541 823 163
0.092729971 -0.029742828 0.27407575 0.001321379 795 157
0.095024936 -0.03005982 0.27657464 0.0013541292 777 154
0.096305303 -0.030051615 0.27605975 0.0013760603 762 151
0.09685412 -0.02981841 0.27346417 0.0013060274 808 160
0.097118102 -0.029504832 0.27012253 0.0012617947 848 168
0.098867506 -0.029644815 0.27091861 0.0013127537 822 162
0.10017887 -0.029651549 0.27047703 0.0012879999 832 164
0.10083681 -0.029467162 0.26827776 0.0012490464 892 176
0.1024086 -0.029551102 0.26850596 0.0012500228 876 173
0.10371447 -0.029557176 0.26800805 0.0012703466 862 170
0.10484397 -0.029513463 0.26704288 0.0012020874 942 186
0.10589912 -0.029450122 0.26588607 0.0012146404 929 184
0.10695892 -0.029389575 0.26474163 0.0011986729 940 186
0.10795395 -0.029312868 0.26343998 0.0011783708 965 191
0.10870486 -0.029172441 0.26155677 0.0011681761 988 195
0.10972285 -0.029106097 0.26033014 0.0011810691 962 190
0.11079216 -0.029054724 0.25922945 0.0011840162 961 190
0.11190362 -0.02901544 0.25822973 0.0011676364 978 193
0.11288178 -0.028942853 0.25692943 0.0011864416 947 187
0.11357481 -0.028799566 0.25500193 0.0011889302 953 188
0.11476982 -0.028785303 0.25421879 0.0012154239 922 182
0.115482 -0.028651556 0.25238487 0.0012002744 943 186
0.11622871 -0.028529139 0.25066099 0.0012170227 928 184
0.11652508 -0.028299933 0.2480147 0.001188508 955 189
0.11763503 -0.028271044 0.24714132 0.001215852 917 181
0.11861607 -0.028212089 0.24602261 0.001246894 883 175
0.11962886 -0.028161824 0.2450017 0.0012496698 883 175
0.12075274 -0.028138451 0.24424019 0.0012450719 886 175
0.12148247 -0.028024629 0.24272431 0.0013126158 823 163
0.12136988 -0.027720684 0.23960152 0.0012970829 832 164
0.1225785 -0.027721504 0.23915409 0.0013230371 808 160
0.12477749 -0.027944105 0.24065608 0.0013983372 730 144
0.12641589 -0.028038086 0.241089 0.0014412984 685 135
0.12685215 -0.027866181 0.23928273 0.0014719211 673 133
-0.13159561 -0.024483131 0.22025461 0.0018214772 453 89
-0.12987724 -0.024369471 0.21892123 0.0017913552 471 93
-0.13443221 -0.025441077 0.22826493 0.0019224804 424 84
-0.1443751 -0.027559768 0.24701495 0.002120964 365 72
-0.14531979 -0.027982848 0.25059304 0.002319247 354 70
-0.14399363 -0.027972259 0.25033572 0.0020376947 445 88
-0.14265095 -0.027958242 0.2501007 0.0017871269 513 101
-0.141959 -0.028072659 0.2510685 0.0018251414 478 94
-0.14085357 -0.028106643 0.25137219 0.0017275041 551 109
-0.13763471 -0.027715664 0.24793054 0.0015962849 593 117
-0.13971265 -0.028393935 0.25411135 0.001613048 571 113
-0.13893282 -0.028498659 0.25521916 0.0015626568 614 121
-0.13864407 -0.028707026 0.25731355 0.0016095147 581 115
-0.13906445 -0.029067572 0.26083234 0.0016376681 582 115
-0.13744017 -0.029003566 0.26059818 0.0016074905 616 122
-0.14023344 -0.029879563 0.26887232 0.0016036363 597 118
-0.13856408 -0.029812537 0.2687211 0.0015798073 593 117
-0.13728161 -0.029828256 0.2693609 0.0015141829 630 124
-0.13590749 -0.029824167 0.2698639 0.0014330092 703 139
-0.13434803 -0.029778922 0.27003101 0.0014126004 743 147
-0.13301055 -0.029782463 0.27067259 0.0013751801 748 148
-0.13165905 -0.029782895 0.27131408 0.0013412667 779 154
-0.12983641 -0.029675663 0.27099589 0.001311623 826 163
-0.12665276 -0.029251831 0.26779312 0.0012087605 947 187
-0.12675096 -0.02958503 0.27153286 0.0012841746 809 160
-0.12527782 -0.029554674 0.27195287 0.0011972642 969 192
-0.12320901 -0.029381605 0.27106088 0.0011788848 954 189
-0.12391821 -0.029874478 0.27632251 0.0012899119 875 173
-0.12152026 -0.029620895 0.27468467 0.0011917464 970 192
-0.12126599 -0.029890012 0.27789041 0.0013050106 791 156
-0.11785628 -0.029378653 0.27382779 0.0011535578 984 195
-0.11661343 -0.029401906 0.27472791 0.0012552842 825 163
-0.11525979 -0.029397443 0.27535877 0.0011900213 946 187
-0.11367974 -0.02933445 0.27542755 0.0012291558 868 172
-0.11203437 -0.029252907 0.27530524 0.0012126421 935 185
-0.11047393 -0.029191846 0.27535775 0.0012008114 913 181
-0.10918789 -0.029202696 0.27607167 0.0012607294 848 168
-0.10787874 -0.02920755 0.27671281 0.0012846529 834 165
-0.10671687 -0.029252898 0.27772143 0.0012866418 821 162
-0.10429104 -0.028948553 0.27538767 0.0013079277 833 165
-0.10138864 -0.028502453 0.27167359 0.001300114 815 161
-0.10036023 -0.02857844 0.27291137 0.0012977142 833 165
-0.098651983 -0.028460294 0.27227685 0.0012948094 817 162
-0.097242214 -0.028426262 0.27242684 0.0013351352 798 158
-0.096151337 -0.028485784 0.27345622 0.0013838171 728 144
-0.095071554 -0.028550273 0.27451774 0.0013512326 742 147
-0.093445554 -0.028450238 0.27397951 0.0014056375 707 140
-0.092585191 -0.028583772 0.27567402 0.0013821631 709 140
-0.093173556 -0.029174734 0.28177324 0.0015050397 619 122
-0.092235193 -0.029297806 0.28334633 0.001564172 600 118
-0.093173429 -0.030029304 0.29079774 0.0016598732 553 109
-0.092135526 -0.030136179 0.29219404 0.0016883044 544 107
-0.093940079 -0.031190032 0.30276904 0.0017568949 515 102
-0.09302184 -0.031358302 0.30474466 0.0017897423 505 100
-0.092622615 -0.031709492 0.30848703 0.001804178 479 94
-0.092543699 -0.032183174 0.31341329 0.0018412058 464 92
-0.090943165 -0.032134414 0.31324005 0.0017888726 504 99
-0.088972278 -0.031951059 0.3117373 0.0016939135 549 108
-0.086397037 -0.03154099 0.30800247 0.0015902683 613 121
-0.084545024 -0.031385571 0.30673528 0.0015913214 601 119
-0.083364934 -0.031478532 0.30788118 0.0015253042 636 126
-0.08194191 -0.031481411 0.30813321 0.0015945958 599 118
-0.080263838 -0.031384662 0.30739644 0.0015554707 627 124
-0.079546198 -0.031666748 0.31035873 0.0015697012 597 118
-0.078155212 -0.031686246 0.31073701 0.0015202062 629 124
-0.076314732 -0.031520814 0.30928901 0.0015754704 603 119
-0.074685022 -0.031437766 0.30863675 0.0014751941 675 133
-0.073118612 -0.031378649 0.30820772 0.001626189 608 120
-0.071517631 -0.03130205 0.30759579 0.0015732095 628 124
-0.070111394 -0.03130931 0.30779743 0.0016150288 577 114
-0.069118291 -0.031505182 0.30984432 0.0017068386 535 106
-0.067661814 -0.03149366 0.30984291 0.0016271289 584 115
-0.066273436 -0.031514019 0.31014615 0.0016336567 573 113
-0.065424711 -0.031797566 0.31303182 0.0016926874 546 108
-0.064060509 -0.03183772 0.31351405 0.001709678 552 109
-0.062152904 -0.031603426 0.31128526 0.0016497158 559 110
-0.05991422 -0.031185726 0.30724081 0.0016254382 575 114
-0.057982873 -0.030911624 0.30460256 0.0016126505 590 116
-0.056520585 -0.030880187 0.3043482 0.0015876761 605 119
-0.055047642 -0.030841177 0.30401281 0.0016088159 581 115
-0.053196527 -0.030582722 0.30150774 0.0015958241 604 119
-0.051618446 -0.030471575 0.30044889 0.0015632829 608 120
-0.050275311 -0.030496821 0.30072948 0.0015894733 604 119
-0.048728414 -0.030396387 0.29976574 0.0016486375 578 114
-0.046342921 -0.029751729 0.29342961 0.0016353675 569 112
-0.044894438 -0.029687949 0.29281783 0.0015829831 587 116
-0.043476764 -0.029641226 0.29237026 0.0015773947 607 120
-0.041995969 -0.029547103 0.29145148 0.0016176222 599 118
-0.040681284 -0.029567491 0.29165879 0.0016911089 550 109
-0.039820958 -0.029930783 0.29524556 0.0017053274 538 106
-0.038629111 -0.030061781 0.29653805 0.0017499067 527 104
-0.037727736 -0.030436715 0.30023423 0.0019039981 446 88
-0.0368613 -0.03086945 0.30449808 0.0021745767 371 73
-0.035801172 -0.0311678 0.30743402 0.0027563924 265 52
-0.034161393 -0.03096531 0.30542794 0.0023369903 344 68
-0.032413218 -0.030642945 0.30223787 0.0019163792 456 90
-0.030711887 -0.030337913 0.29921761 0.0017638821 528 104
-0.02908548 -0.030081695 0.29667786 0.0016513915 552 109
-0.027619436 -0.029974245 0.29560453 0.0016123895 573 113
-0.025639471 -0.029268971 0.28863519 0.0015389987 631 125
-0.024411164 -0.029391527 0.28982922 0.0015878157 594 117
-0.023148036 -0.029483927 0.29072538 0.001562567 622 123
-0.021756062 -0.029413478 0.29001564 0.0015882438 600 118
-0.020132191 -0.02899977 0.2859216 0.0014911696 643 127
-0.018684281 -0.028799322 0.28393075 0.0013788717 753 149
-0.017428292 -0.028886778 0.28477862 0.0014513757 692 137
-0.016061328 -0.028789569 0.28380641 0.0014398476 690 136
-0.015007108 -0.029285412 0.288681 0.0015066713 649 128
-0.013737358 -0.029416239 0.28995782 0.0015795416 622 123
-0.01232736 -0.029242583 0.28823417 0.0015862712 616 122
-0.010940059 -0.029087305 0.28669274 0.0015944603 618 122
-0.0096288742 -0.029119538 0.28700051 0.0015803099 601 119
-0.0083700269 -0.029345538 0.28921908 0.0017332311 533 105
-0.0070090597 -0.029231312 0.28808564 0.0016052375 567 112
-0.005616196 -0.028899534 0.28480953 0.0014221002 705 139
-0.0042949538 -0.028846256 0.28427938 0.0012957626 839 166
-0.0029924973 -0.028927777 0.28507891 0.0013306923 816 161
-0.0016972184 -0.029260762 0.28835803 0.0014417723 703 139
-0.00036742984 -0.029255768 0.28830773 0.0014653555 668 132
0.00094305089 -0.028677447 0.28260881 0.0014143126 711 140
0.0022477494 -0.028696351 0.2827968 0.0013839783 750 148
0.0035675936 -0.028823741 0.28405523 0.0013538151 757 150
0.0049131452 -0.029034629 0.28613788 0.0013909837 729 144
0.0062260358 -0.029004078 0.28584248 0.00138418 757 150
0.0075533953 -0.029039824 0.28620169 0.0013558472 765 151
0.0088953413 -0.029112682 0.28692791 0.0013940999 749 148
0.01023022 -0.029146533 0.2872709 0.0013692257 770 152
0.011535059 -0.029096851 0.28679159 0.0013505324 759 150
0.012932171 -0.029266208 0.28847227 0.0013576191 771 152
0.01440935 -0.029568277 0.29146212 0.0013890235 741 146
0.015793489 -0.029644178 0.29222351 0.0014143985 729 144
0.017110944 -0.029592825 0.29173121 0.0014321923 710 140
0.018834358 -0.030199887 0.29773045 0.0014744154 689 136
0.020173037 -0.030149482 0.29724869 0.0014540481 681 135
0.02182376 -0.030542197 0.30113608 0.0015257376 611 121
0.023332633 -0.030701296 0.30272055 0.0015980211 565 112
0.024579313 -0.030516908 0.30091801 0.0015253143 641 127
0.026855776 -0.031562481 0.31124398 0.0017238974 511 101
0.028701443 -0.032021403 0.31578517 0.0019444464 435 86
0.029993484 -0.031848177 0.31409174 0.0019146111 468 92
0.031284284 -0.03168964 0.3125422 0.0017175103 520 103
0.032560341 -0.031530786 0.31098828 0.00160701 595 117
0.034118772 -0.031647231 0.31214836 0.0016399277 561 111
0.03577283 -0.031839378 0.3140536 0.0016773813 548 108
0.037262391 -0.031875864 0.31442174 0.0016999295 532 105
0.039070945 -0.032172289 0.31735185 0.001776359 499 98
0.041552678 -0.032981653 0.3253395 0.0019815508 424 84
0.04312133 -0.033035155 0.32586852 0.0022520612 364 72
0.043536346 -0.032230992 0.31793433 0.0019355016 448 88
0.044686839 -0.032005943 0.31570953 0.0017830363 493 97
0.045918304 -0.031851247 0.31417534 0.0017242283 529 104
0.047646321 -0.032039922 0.31602421 0.001770407 517 102
0.049152076 -0.032072376 0.31632811 0.001655005 563 111
0.050900202 -0.032256551 0.31812388 0.0017774473 499 98
0.052302308 -0.032217275 0.31771111 0.0017736692 509 100
0.053471208 -0.032040399 0.31593651 0.0017484209 536 106
0.054139972 -0.03158116 0.31137297 0.0016558076 570 113
0.055783942 -0.031699814 0.31250182 0.0017238364 511 101
0.057104036 -0.031633075 0.31179708 0.0018024637 491 97
0.057971373 -0.031324971 0.30870754 0.0017143301 521 103
0.058079347 -0.030631142 0.30181196 0.0015999945 575 114
0.058706496 -0.030237196 0.29786652 0.0015904965 604 119
0.060271315 -0.030333186 0.29874098 0.001586694 584 115
0.061516769 -0.030267742 0.29801807 0.0015375072 632 125
0.061894856 -0.02978773 0.29320711 0.0015053957 641 127
0.063124001 -0.029729081 0.29253727 0.0015229722 640 126
0.064697459 -0.029831648 0.29344532 0.0015698371 600 118
0.0659675 -0.029792976 0.2929551 0.0015688601 606 120
0.067722827 -0.029970625 0.29458237 0.0015708326 603 119
0.068668604 -0.029790064 0.29267937 0.0015082068 649 128
0.069959342 -0.029763244 0.29227793 0.0015406682 628 124
0.071252942 -0.029738637 0.29188827 0.0015485499 634 125
0.071868502 -0.02943722 0.28877291 0.0014827303 666 132
0.072626181 -0.029203964 0.28631824 0.001449062 681 135
0.0737499 -0.029123632 0.2853536 0.0014457261 699 138
0.075104661 -0.029135767 0.28528383 0.0014559657 699 138
0.076428853 -0.02913582 0.28508389 0.0014385605 716 141
0.077965915 -0.029215641 0.28565159 0.0014476002 686 136
0.079080068 -0.029136969 0.284657 0.0014411956 697 138
0.080056511 -0.029010987 0.28318879 0.0014128094 722 143
0.081255361 -0.028968373 0.28252244 0.0014051873 741 146
0.082801737 -0.029049039 0.28304425 0.0014135495 718 142
0.084799729 -0.029283131 0.28504384 0.0013808698 743 147
0.085550576 -0.029085975 0.28283072 0.0014047406 728 144
0.086638071 -0.029007534 0.28175983 0.0013731316 765 151
0.087439291 -0.028837029 0.27978221 0.0013553113 756 149
0.090268634 -0.02933055 0.28422755 0.0014068146 732 145
0.091591425 -0.029327316 0.2838372 0.0013722123 750 148
0.092827946 -0.029296944 0.28316811 0.0013790461 744 147
0.093087301 -0.028963391 0.27955666 0.0013356612 782 155
0.093842916 -0.0287914 0.27749455 0.0013192861 797 158
0.095083877 -0.028770996 0.27687901 0.0013398184 809 160
0.0963488 -0.028758295 0.27632076 0.0012900123 832 164
0.097651795 -0.028757147 0.27585617 0.0013004773 834 165
0.098286733 -0.028561898 0.27351514 0.0012844114 842 166
0.099237271 -0.02846225 0.27207687 0.0012610924 874 173
0.10073224 -0.028519308 0.2721197 0.0012363009 897 177
0.10138489 -0.02833947 0.26988667 0.0012224307 910 180
0.10293358 -0.028411461 0.27003652 0.0011790702 969 192
0.1042421 -0.0284162 0.26952845 0.0011986317 937 185
0.10505719 -0.02828796 0.26774472 0.0011735689 986 195
0.10566548 -0.028107814 0.26545972 0.001145042 1016 201
0.10727893 -0.028196158 0.26569656 0.0011492355 1008 199
0.10793946 -0.028034916 0.2635684 0.0011559416 993 196
0.10867285 -0.027896136 0.26164424 0.0011300152 1039 206
0.1097623 -0.027850905 0.26058909 0.0011359859 1032 204
0.11072807 -0.027775679 0.25924501 0.0011590084 1010 200
0.1117067 -0.027705338 0.25794068 0.0011441086 1012 200
0.11289702 -0.027688487 0.25712898 0.0011493179 1014 201
0.11346278 -0.027520515 0.25491336 0.0011555037 1024 203
0.11449952 -0.027469199 0.25378105 0.0011624256 987 195
0.11583722 -0.027490413 0.25332001 0.0011605991 999 198
0.11670478 -0.027400792 0.25184292 0.0011843925 957 189
0.11681773 -0.02713776 0.24878754 0.0011912548 958 189
0.11758767 -0.027031254 0.24718651 0.0012016923 936 185
0.11914217 -0.027105439 0.24725342 0.001260962 885 175
0.11929566 -0.026862636 0.24445128 0.0012309733 896 177
0.12111808 -0.026996747 0.24510463 0.0012658451 871 172
0.12268043 -0.027070781 0.24523564 0.0013156779 816 161
0.12218603 -0.026694005 0.24132009 0.0012987185 815 161
0.12319387 -0.026649607 0.24045256 0.0013322172 786 155
0.12462115 -0.026695924 0.24044265 0.0013759052 752 149
0.12609673 -0.026751595 0.24055803 0.0014256631 722 143
0.1273229 -0.026753793 0.2402375 0.0014417563 693 137
-0.13910268 -0.024703728 0.23275627 0.0020959657 391 77
-0.14208244 -0.025448075 0.2394366 0.0020055252 421 83
-0.14456536 -0.026115468 0.24541965 0.0021072372 405 80
-0.14728265 -0.026837142 0.25194559 0.0020537712 431 85
-0.14514005 -0.026678158 0.25024852 0.0019880477 442 87
-0.14253221 -0.026430095 0.24777032 0.001799962 503 99
-0.14128046 -0.026431309 0.24768314 0.0017324659 531 105
-0.14181826 -0.026770359 0.25081524 0.0017876386 505 100
-0.13879749 -0.026437733 0.24770926 0.001545754 623 123
-0.14007735 -0.026925676 0.2523483 0.0016568247 545 108
-0.13956127 -0.027074236 0.2538653 0.0015749242 613 121
-0.13888726 -0.027194643 0.25517645 0.0015482293 617 122
-0.13880923 -0.027435109 0.25767311 0.001652143 560 111
-0.13740504 -0.027415538 0.25778449 0.0015031362 650 128
-0.13763885 -0.027725548 0.26105168 0.0015258158 626 124
-0.13984472 -0.028442653 0.26821715 0.0015917752 605 119
-0.13894601 -0.028536176 0.26956317 0.0016087131 604 119
-0.13744853 -0.028507361 0.26979998 0.0015459477 620 122
-0.13548566 -0.02838048 0.26914689 0.0014724979 655 129
-0.13385357 -0.028321031 0.26916626 0.0014006083 725 143
-0.1325257 -0.028325398 0.26982284 0.0013857757 762 151
-0.13137662 -0.02836846 0.27087623 0.0013319538 819 162
-0.12992191 -0.028345734 0.2713244 0.0013286259 799 158
-0.1283748 -0.028302161 0.27158922 0.0012444665 884 175
-0.12711684 -0.028322088 0.27247614 0.0012802618 849 168
-0.12480923 -0.028106067 0.27109736 0.0011515678 1008 199
-0.12460762 -0.028364761 0.2743037 0.0012722438 874 173
-0.12351812 -0.028424794 0.27559841 0.0011707846 982 194
-0.12206268 -0.028401013 0.27607986 0.001208127 886 175
-0.12127214 -0.028533136 0.27807492 0.0012920176 846 167
-0.11755408 -0.027971659 0.27329266 0.001215155 893 177
-0.1182617 -0.028462464 0.27878046 0.0012909384 848 168
-0.11631408 -0.028318187 0.27804509 0.0012227583 902 178
-0.11424021 -0.028139431 0.27695057 0.0012818926 850 168
-0.11195119 -0.027902806 0.27526277 0.0012171133 903 179
-0.11065526 -0.027910993 0.27596968 0.0012724674 872 172
-0.10956531 -0.027971966 0.27718392 0.0013132473 838 166
-0.10822625 -0.027970055 0.27775961 0.0012568794 893 177
-0.10659682 -0.02789212 0.27756125 0.0012890834 850 168
-0.10262489 -0.027191555 0.27113366 0.0012353663 906 179
-0.102419 -0.027483679 0.2745786 0.0013088402 842 166
-0.099800706 -0.027127631 0.27152902 0.0012382126 913 181
-0.098595381 -0.027151356 0.27225679 0.0013231569 831 164
-0.096923217 -0.027045447 0.27166557 0.001300726 813 161
-0.096521445 -0.027295945 0.27463916 0.0014313349 706 139
-0.095948048 -0.027504086 0.27717659 0.0014025985 740 146
-0.095363505 -0.027714742 0.27972841 0.0015548713 637 126
-0.094507709 -0.027851379 0.28152105 0.0014944923 660 130
-0.094263807 -0.02817479 0.28519097 0.0016217474 586 116
-0.092753239 -0.028123474 0.28505459 0.0015728814 609 120
-0.093064129 -0.028631028 0.29057193 0.00162108 591 117
-0.092312969 -0.028822074 0.29286933 0.001644819 567 112
-0.093751773 -0.029712947 0.30227432 0.001725961 528 104
-0.093091637 -0.029955715 0.30508274 0.0017903055 512 101
-0.095372632 -0.031167176 0.31775624 0.0019279793 451 89
-0.09324754 -0.030954288 0.31590247 0.0018759664 474 93
-0.090946175 -0.030675113 0.31335124 0.0016620563 549 108
-0.088480398 -0.030330466 0.31010994 0.0015881279 588 116
-0.086125724 -0.030013094 0.30712667 0.001541067 625 123
-0.084459655 -0.029929036 0.30651319 0.0015411864 630 124
-0.0831194 -0.029959528 0.30705857 0.0014836304 652 129
-0.081977762 -0.03006392 0.30834901 0.0014912267 655 129
-0.080852985 -0.030178316 0.30973056 0.0015205835 637 126
-0.079534851 -0.030223375 0.31038895 0.0015851214 594 117
-0.078501239 -0.030380208 0.31218421 0.0015557066 628 124
-0.076905541 -0.030321317 0.31175137 0.0016154371 588 116
-0.075065471 -0.030161979 0.31027323 0.0015656027 606 120
-0.073294945 -0.030024914 0.3090117 0.001613731 563 111
-0.071730427 -0.029968467 0.30856836 0.0015287006 631 125
-0.070490159 -0.030047948 0.30951458 0.001577323 612 121
-0.068975091 -0.030011153 0.30925354 0.0015807744 625 123
-0.067660667 -0.030061949 0.30988577 0.0017225426 532 105
-0.06620761 -0.030052019 0.30988318 0.0016804055 550 109
-0.064221494 -0.029794343 0.30731654 0.0015938822 607 120
-0.062815912 -0.029800441 0.30746171 0.0016118272 588 116
-0.062224586 -0.030202037 0.31168059 0.0017330525 550 109
-0.060647037 -0.030132623 0.31103209 0.0017012584 536 106
-0.058756657 -0.029900653 0.30869785 0.001719193 542 107
-0.05661476 -0.029525982 0.30488253 0.0015926071 593 117
-0.055027988 -0.029429125 0.30392867 0.0016030896 594 117
-0.053285506 -0.029241752 0.30203372 0.0016203522 576 114
-0.051657859 -0.029109035 0.30069733 0.001669695 562 111
-0.049959853 -0.028928261 0.29885888 0.001551157 630 124
-0.048020612 -0.028593604 0.2954253 0.0015484688 632 125
-0.046356402 -0.028407954 0.29352644 0.001673599 557 110
-0.044948984 -0.028373241 0.29318273 0.0016957038 545 108
-0.043653119 -0.028408978 0.29356307 0.001640604 569 112
-0.042168621 -0.028320316 0.29265434 0.0016887035 547 108
-0.04086829 -0.028353564 0.29300201 0.0016044066 595 117
-0.039745133 -0.028516207 0.29468381 0.0016251699 583 115
-0.038614441 -0.028684754 0.29642388 0.0017569278 529 104
-0.037543599 -0.028911753 0.29876536 0.0019186382 449 89
-0.036914274 -0.029508971 0.30493012 0.0022788881 354 70
-0.035864081 -0.02980369 0.30796671 0.0026555378 284 56
-0.034140386 -0.029539946 0.30523074 0.002232112 362 71
-0.032294348 -0.02914314 0.30111843 0.0018850712 468 92
-0.030742181 -0.028987803 0.29950011 0.0017470811 524 103
-0.029171629 -0.028799718 0.29754242 0.0016680784 550 109
-0.027623881 -0.0286167 0.29563645 0.0016320749 574 113
-0.025734074 -0.028041963 0.28968337 0.0015208754 639 126
-0.024454154 -0.02810527 0.29032138 0.0016176405 590 116
-0.023021193 -0.027989838 0.28911281 0.001515709 657 130
-0.021714766 -0.028023517 0.28944439 0.0015900468 610 120
-0.020339994 -0.027967632 0.28885099 0.0015722208 608 120
-0.018837323 -0.027715743 0.2862336 0.0014808158 666 132
-0.01748994 -0.02767159 0.28576222 0.0015598582 628 124
-0.016250882 -0.027805589 0.2871311 0.001565329 603 119
-0.014914731 -0.027782492 0.28687835 0.0015541536 622 123
-0.01358907 -0.027776346 0.2868014 0.0015276098 645 127
-0.012272525 -0.027789516 0.28692478 0.0015328475 633 125
-0.010957765 -0.027810402 0.28712878 0.0015407109 630 124
-0.009686701 -0.027963163 0.28869545 0.001628487 590 116
-0.0083633084 -0.027989477 0.28895769 0.0015628606 633 125
-0.0070116268 -0.027913148 0.28816155 0.0016079324 596 118
-0.0056520654 -0.027762413 0.28659865 0.0014415706 701 139
-0.0043015932 -0.027577937 0.28468892 0.0012971458 824 163
-0.0029902318 -0.027592277 0.28483298 0.0012958957 835 165
-0.0016934955 -0.027869774 0.28769496 0.0014338212 727 144
-0.00036750932 -0.027932309 0.28833938 0.0014912667 667 132
0.00095753249 -0.027794588 0.28691801 0.0014688161 675 133
0.0022589702 -0.02752902 0.28417841 0.0014297899 714 141
0.0035904897 -0.027690453 0.28584808 0.0014437005 698 138
0.0049104933 -0.027700225 0.28595352 0.0013923171 736 145
0.0062375427 -0.027737185 0.28634113 0.0013860596 722 143
0.0075659109 -0.027766073 0.28664669 0.0013842855 739 146
0.0089160502 -0.027854383 0.28756702 0.0013865272 747 148
0.010270239 -0.027930833 0.28836623 0.0014032018 713 141
0.011600588 -0.027932359 0.28839302 0.0013970243 722 143
0.012950511 -0.027975852 0.28885424 0.0013592123 752 149
0.014436238 -0.028277246 0.29197937 0.0014215228 721 142
0.015839005 -0.02837858 0.29303989 0.0014453869 698 138
0.017492766 -0.02887835 0.29821569 0.0015137267 643 127
0.019050982 -0.029159043 0.30113029 0.0015303894 627 124
0.020583224 -0.029364552 0.30326918 0.0015663882 604 119
0.022526991 -0.030093681 0.31081668 0.0017060469 522 103
0.023922637 -0.030047162 0.31035367 0.0017620105 504 99
0.024833659 -0.029431541 0.30401212 0.0015931067 590 116
0.026817996 -0.030085778 0.31078729 0.0017808109 514 101
0.028657658 -0.030519595 0.31528583 0.001790286 510 101
0.030068986 -0.030477397 0.31486648 0.0018617356 486 96
0.031252045 -0.030218365 0.312206 0.0017050215 534 105
0.032276351 -0.029835388 0.3082636 0.0016072344 575 114
0.034217346 -0.030296333 0.31303957 0.0017239129 541 107
0.035622697 -0.03026492 0.3127268 0.0016310301 575 114
0.037227433 -0.030398756 0.31411988 0.0017434515 513 101
0.039110053 -0.030740995 0.31766465 0.0017774672 495 98
0.041301239 -0.03129233 0.32336795 0.0021188145 395 78
0.042790819 -0.031292211 0.32337016 0.0020906474 395 78
0.043412909 -0.030679053 0.31703442 0.0019537206 443 87
0.04471923 -0.030573614 0.31594217 0.0017442612 523 103
0.045735668 -0.030282879 0.31293181 0.0016727024 554 109
0.047240067 -0.030323125 0.31333801 0.0016153841 574 113
0.04930345 -0.030709164 0.31731328 0.0016976725 526 104
0.050708584 -0.03067477 0.31693968 0.0017669733 520 103
0.0522031 -0.030694863 0.31712449 0.0017382384 515 102
0.053625166 -0.03067242 0.31686479 0.0018279743 472 93
0.055068597 -0.030663062 0.31673494 0.0018215502 480 95
0.05617566 -0.030471727 0.31472003 0.0018238743 495 98
0.05697551 -0.030127581 0.31112152 0.0016535536 565 112
0.058492232 -0.030170098 0.31151026 0.0017356965 528 104
0.060556259 -0.030486105 0.31471556 0.0018265805 477 94
0.06050735 -0.029748488 0.30703795 0.0017261843 520 103
0.06116467 -0.029383896 0.30320561 0.0016503494 557 110
0.060957368 -0.028629526 0.29534656 0.001542736 634 125
0.063254945 -0.029058874 0.29969206 0.0015380736 616 122
0.06469164 -0.029082822 0.2998471 0.0015698365 621 123
0.067244992 -0.029597254 0.30504876 0.0016157127 591 117
0.068305686 -0.029447077 0.30339035 0.0016261133 589 116
0.0686839 -0.029014634 0.29881668 0.0015475346 619 122
0.069426894 -0.0287503 0.29596773 0.0015399156 635 125
0.070616283 -0.028677471 0.29508188 0.0015721663 608 120
0.072466582 -0.028870711 0.29692286 0.001581737 621 123
0.073098555 -0.02858041 0.29378077 0.0014978598 656 130
0.073038243 -0.028034989 0.28801006 0.0014191924 712 141
0.074997544 -0.028270446 0.29025215 0.0014523916 681 135
0.075627826 -0.028005457 0.28734478 0.0014571382 674 133
0.078068145 -0.028408298 0.29127657 0.0014860432 654 129
0.078228787 -0.027981997 0.28669479 0.0014388855 702 139
0.08032807 -0.028251799 0.28923351 0.0014593216 682 135
0.082485244 -0.028532743 0.29186854 0.0014735064 681 135
0.084608227 -0.028792948 0.29427296 0.001470714 667 132
0.083686829 -0.028025338 0.28616342 0.0014636397 684 135
0.084990509 -0.028015275 0.28578213 0.0014133936 712 141
0.087564602 -0.028417816 0.28959104 0.0014051081 722 143
0.088724628 -0.028356174 0.28865084 0.001418718 725 143
0.089243278 -0.028094471 0.28566217 0.00141869 731 144
0.090391681 -0.028035818 0.28472602 0.001350258 780 154
0.091612473 -0.028000996 0.28401679 0.0013770392 761 150
0.092774726 -0.027949542 0.28312346 0.001339755 788 156
0.094128534 -0.027956432 0.28280488 0.0013351055 797 158
0.094179146 -0.027581474 0.27861181 0.0013372485 809 160
0.095259376 -0.027514216 0.27751619 0.0013135084 821 162
0.096441165 -0.027477717 0.27671501 0.0012838922 854 169
0.097767197 -0.02748275 0.27631491 0.0012398288 891 176
0.098916605 -0.027438654 0.2754038 0.0012377757 890 176
0.099291317 -0.027183607 0.27236286 0.0011760631 977 193
0.10055972 -0.027176654 0.2717945 0.0011782636 987 195
0.10234155 -0.027306866 0.27257785 0.0011755389 977 193
0.10330541 -0.027218301 0.27115902 0.0011459292 1011 200
0.10441419 -0.027169639 0.27012298 0.0011466853 1017 201
0.10553282 -0.027124695 0.2691088 0.0011708123 1001 198
0.10637873 -0.027011592 0.26740512 0.0011473463 1033 204
0.10710295 -0.026870662 0.26541561 0.0011303469 1056 209
0.10804862 -0.026787959 0.26399121 0.0011161149 1077 213
0.10891538 -0.026687853 0.2623854 0.0011027351 1078 213
0.10970893 -0.026572324 0.26062012 0.0011135101 1053 208
0.11086473 -0.026546163 0.25972328 0.0011130864 1077 213
0.11176141 -0.026459249 0.25822505 0.0011145871 1060 210
0.11251677 -0.026341191 0.25642011 0.001126272 1054 208
0.11290938 -0.026141746 0.25382525 0.0011128687 1072 212
0.11527618 -0.026398748 0.25565785 0.0011394148 1022 202
0.11612804 -0.02630702 0.25410879 0.0011709385 993 196
0.11694894 -0.026210308 0.25251925 0.001157967 992 196
0.11790627 -0.026145898 0.25125134 0.0011984274 964 191
0.11899587 -0.026111852 0.25028774 0.0011928687 946 187
0.12026868 -0.026118303 0.24972713 0.0012354937 915 181
0.12096651 -0.026001029 0.24800436 0.0012462316 882 174
0.12087914 -0.025719067 0.24474232 0.0012521411 871 172
0.12274526 -0.025854232 0.24547957 0.0012773063 848 168
0.12362409 -0.025780821 0.24426608 0.0013104972 819 162
0.12374904 -0.025553182 0.2416321 0.0013183166 819 162
0.12462749 -0.025484055 0.2405411 0.0013403983 792 157
0.12592626 -0.025501372 0.24030913 0.0013650859 760 150
0.12792449 -0.02565866 0.241439 0.0014278152 708 140
-0.14412645 -0.024377359 0.24110119 0.0020019929 420 83
-0.14251885 -0.024310997 0.24011809 0.0018744611 465 92
-0.1442102 -0.024811069 0.24476941 0.0019058324 447 88
-0.14277883 -0.0247779 0.24420211 0.0017742203 504 99
-0.14338833 -0.025101425 0.24719734 0.0018119189 513 101
-0.14131068 -0.024956098 0.24562526 0.0017578102 508 100
-0.14096658 -0.025117058 0.24712072 0.0016484762 573 113
-0.14079848 -0.025312556 0.24900942 0.001743874 511 101
-0.13948867 -0.025304483 0.24895088 0.0016553618 530 105
-0.13985346 -0.025602827 0.25196388 0.0016702333 550 109
-0.13928972 -0.025735131 0.25340131 0.0015267674 623 123
-0.13952696 -0.026019268 0.25639322 0.001643723 569 112
-0.13835765 -0.026043987 0.25688747 0.0014862025 675 133
-0.1377798 -0.026181567 0.2585516 0.0015535513 607 120
-0.13898429 -0.026663724 0.26367968 0.0015805905 598 118
-0.13931529 -0.026986014 0.26728952 0.0015537887 617 122
-0.13921678 -0.027230602 0.27018744 0.0015362644 634 125
-0.13765547 -0.027191069 0.2703146 0.0015156785 648 128
-0.13567331 -0.027066791 0.26963663 0.0014967769 681 135
-0.13378607 -0.026959134 0.26915514 0.0014430125 704 139
-0.13228685 -0.026928278 0.26946834 0.0013674279 735 145
-0.13100845 -0.02694219 0.27025551 0.0013033425 816 161
-0.12934266 -0.026875904 0.27025843 0.0013016261 847 167
-0.12765674 -0.026803996 0.27021807 0.0011877982 956 189
-0.12754023 -0.027063584 0.27353701 0.0012398027 907 179
-0.12613718 -0.027052814 0.27413818 0.0012103742 940 186
-0.12474081 -0.027043261 0.27475554 0.001261907 850 168
-0.1234537 -0.027057441 0.2756151 0.0012301218 889 176
-0.12292637 -0.027240308 0.27819589 0.0013144687 805 159
-0.12068103 -0.027042292 0.27688128 0.0012822067 840 166
-0.11982878 -0.027155489 0.27874318 0.0013109068 803 159
-0.11836618 -0.027131384 0.27918822 0.0013147173 800 158
-0.11702155 -0.02713407 0.27989665 0.0013313483 775 153
-0.11476237 -0.026922274 0.27837417 0.0013048146 811 160
-0.11358469 -0.026962178 0.27943537 0.0013494687 773 153
-0.11189873 -0.026880933 0.27922449 0.0013455357 781 154
-0.11025509 -0.026808009 0.27907991 0.0013209473 786 155
-0.10803849 -0.026592257 0.27742493 0.0012863927 831 164
-0.10574184 -0.026351184 0.27547833 0.0012395013 892 176
-0.10406108 -0.026259447 0.27506807 0.0012954941 830 164
-0.10190102 -0.026042869 0.27332589 0.0012152558 932 184
-0.10053033 -0.026025036 0.27364698 0.0013054832 815 161
-0.098228231 -0.025762459 0.27137157 0.0012630204 873 173
-0.097231209 -0.025839729 0.27265465 0.0013424024 804 159
-0.096372873 -0.025956435 0.27433965 0.0013621902 778 154
-0.095163584 -0.025980519 0.27503052 0.0013939069 752 149
-0.095627367 -0.026468348 0.2806215 0.00151031 662 131
-0.094459444 -0.026511896 0.28149319 0.0015042509 654 129
-0.09371639 -0.026677627 0.2836481 0.0015831243 630 124
-0.09394034 -0.027127387 0.28881463 0.0015767969 602 119
-0.093063064 -0.027267665 0.29067752 0.0015782233 607 120
-0.091913193 -0.02733105 0.29170677 0.0015868493 594 117
-0.094902761 -0.02864581 0.30609265 0.0017576457 523 103
-0.095335953 -0.029217411 0.31254366 0.0018519949 468 92
-0.095423058 -0.029699078 0.31802803 0.0019422086 439 87
-0.093991391 -0.029715804 0.31852269 0.0018368142 485 96
-0.09216743 -0.029607054 0.3176553 0.001792016 492 97
-0.089951567 -0.029366802 0.31535792 0.0016981201 546 108
-0.088472061 -0.029362977 0.3155821 0.0017730593 529 104
-0.086127885 -0.029067198 0.31265137 0.0016559969 561 111
-0.084732659 -0.029087026 0.31309885 0.0017120788 533 105
-0.083257362 -0.029079581 0.31323922 0.0016288096 566 112
-0.081916749 -0.029119749 0.31387949 0.0017002242 527 104
-0.080690645 -0.029202808 0.31497025 0.0016797864 541 107
-0.07973969 -0.029390346 0.31717715 0.0016541759 563 111
-0.07730639 -0.029028311 0.31344011 0.0016034477 578 114
-0.075493835 -0.028889967 0.31210411 0.0016101868 573 113
-0.073738635 -0.028768603 0.31093919 0.0016828517 570 113
-0.071896106 -0.028607668 0.30933461 0.001582319 626 124
-0.070456244 -0.028603669 0.30941615 0.0016322936 575 114
-0.068873324 -0.028540229 0.30884466 0.0015297772 640 126
-0.067627609 -0.02861679 0.30977893 0.0016084774 617 122
-0.066051871 -0.028553994 0.30919576 0.0016326407 591 117
-0.06442105 -0.028464083 0.30831003 0.0016671175 551 109
-0.062834807 -0.028390251 0.30758977 0.0015414103 633 125
-0.062014818 -0.028667223 0.31066304 0.001622451 604 119
-0.06079302 -0.028767165 0.3118113 0.0017322253 541 107
-0.058365967 -0.028287804 0.3066726 0.00166872 563 111
-0.056616277 -0.028121077 0.30491528 0.0016375461 598 118
-0.055059996 -0.028044378 0.3041274 0.0016098343 596 118
-0.053327724 -0.027871691 0.30229241 0.0016369028 578 114
-0.051613562 -0.027699454 0.3004562 0.0016264622 586 116
-0.049779851 -0.027451793 0.2977964 0.0016374588 556 110
-0.048100367 -0.027277561 0.29592788 0.001606517 582 115
-0.046327516 -0.027038662 0.29335302 0.0016146855 586 116
-0.044919722 -0.027004872 0.29299918 0.0016498141 585 115
-0.043522205 -0.026975358 0.29268786 0.0016287694 586 116
-0.042243082 -0.027019685 0.29317418 0.0017494448 520 103
-0.041068245 -0.027135843 0.29443666 0.0016729092 557 110
-0.039842565 -0.027225198 0.29540533 0.001709308 540 107
-0.038674172 -0.027361404 0.29687953 0.0018320711 466 92
-0.037484374 -0.027491897 0.29828921 0.0019668408 424 84
-0.037138991 -0.028275203 0.30677944 0.0023852119 319 63
-0.036250062 -0.028690299 0.31127229 0.0025041723 303 60
-0.034327623 -0.028287919 0.30689421 0.0022508511 361 71
-0.032405742 -0.027851444 0.30214506 0.0019502726 429 85
-0.03061448 -0.027493086 0.29824248 0.001727539 529 104
-0.029153502 -0.027411588 0.29734248 0.0016693438 565 112
-0.027641129 -0.027271347 0.29580462 0.0016159284 587 116
-0.025889074 -0.026867812 0.2914106 0.0015905522 595 117
-0.024427235 -0.026737785 0.289983 0.0016068589 585 115
-0.022866599 -0.026478302 0.28715149 0.0015465518 619 122
-0.021507459 -0.026434589 0.28666005 0.001622242 592 117
-0.020212248 -0.026468873 0.28701463 0.0015053577 646 128
-0.018889245 -0.026469022 0.28699932 0.0014906791 651 129
-0.01755775 -0.026456388 0.28684589 0.0015529477 629 124
-0.016215447 -0.026424089 0.28647989 0.0015475759 654 129
-0.014897364 -0.026429027 0.28651828 0.0015095456 658 130
-0.013560315 -0.026398007 0.28616774 0.0015490426 637 126
-0.01230807 -0.026543181 0.28772819 0.0015773617 614 121
-0.01100984 -0.026612291 0.28846505 0.0015156821 655 129
-0.0096944915 -0.026653327 0.28889868 0.0016274052 598 118
-0.0082830358 -0.026401108 0.2861551 0.0015239479 622 123
-0.0069740242 -0.026441701 0.28658652 0.0015098382 643 127
-0.0056484882 -0.02642398 0.28638732 0.0014865511 679 134
-0.0043307175 -0.026442848 0.28658617 0.0014339335 668 132
-0.0030138986 -0.026486663 0.28705683 0.0013644968 758 150
-0.0016938194 -0.026548039 0.28771925 0.0013946361 733 145
-0.00036581841 -0.026480125 0.286982 0.0015031209 660 130
0.0009562308 -0.026435371 0.28649735 0.001474547 687 136
0.0022809 -0.026472956 0.28690657 0.0014640245 680 134
0.0036079802 -0.026500652 0.28721011 0.0014632391 693 137
0.0049335416 -0.026505312 0.28726551 0.0014333713 703 139
0.0063512218 -0.026898129 0.29152933 0.0015255132 652 129
0.0076268916 -0.026657335 0.28892735 0.0014516247 708 140
0.0090202754 -0.026838413 0.29089919 0.0014974807 669 132
0.010449065 -0.027064295 0.29335815 0.0015219414 645 127
0.011640489 -0.026694072 0.28935689 0.0014780429 683 135
0.013238152 -0.027235774 0.29524186 0.0015128183 644 127
0.014572419 -0.027185084 0.29470649 0.0015650361 608 120
0.016527705 -0.028202739 0.30575427 0.0016407664 545 108
0.017969228 -0.028252656 0.30631196 0.0016330384 555 110
0.019661937 -0.02866145 0.31076154 0.0017327182 526 104
0.021009712 -0.028546054 0.30952835 0.0017889823 498 98
0.022342972 -0.028426873 0.30825439 0.001702036 538 106
0.023797212 -0.028466655 0.30870441 0.0017570726 505 100
0.025214398 -0.028460126 0.30865225 0.0016166207 580 115
0.026720766 -0.02854958 0.30964103 0.0016470908 562 111
0.028344296 -0.028748801 0.31182018 0.0016654535 553 109
0.030051753 -0.02900981 0.31466925 0.0016950545 539 106
0.031442679 -0.028955301 0.31409532 0.001661406 563 111
0.032640725 -0.028735783 0.31173027 0.0016493441 563 111
0.034258693 -0.02888887 0.31340614 0.001658374 559 110
0.035973728 -0.029108116 0.31579846 0.001724923 520 103
0.037644569 -0.029275948 0.31763145 0.0017895747 491 97
0.039691355 -0.029712649 0.3223798 0.0018648768 464 92
0.041324016 -0.029819021 0.323542 0.0021123544 392 77
0.0424789 -0.029585222 0.32101074 0.0019728257 427 84
0.043622829 -0.029359786 0.31856731 0.0017713477 513 101
0.044555847 -0.029011695 0.31478992 0.0016533807 576 114
0.04607762 -0.029056819 0.31527576 0.0016885566 539 106
0.04735605 -0.028950425 0.31411391 0.0016734281 554 109
0.048860751 -0.028984563 0.31447297 0.0016953329 550 109
0.050466694 -0.029075066 0.31543916 0.001615835 584 115
0.052061595 -0.029154312 0.31627858 0.0017717412 527 104
0.053686593 -0.029245643 0.31724402 0.0017873507 502 99
0.054614644 -0.028962538 0.3141427 0.001671812 558 110
0.055780739 -0.028817026 0.3125287 0.0017265272 529 104
0.057126798 -0.028769469 0.3119714 0.0017319423 503 99
0.05857167 -0.028772796 0.31195965 0.0017672138 526 104
0.061319456 -0.029400665 0.31871161 0.0018972566 459 91
0.062584318 -0.029304767 0.31760967 0.0019504445 449 89
0.063766144 -0.029175268 0.31613663 0.0018938918 460 91
0.064193614 -0.028714133 0.31106386 0.0017129105 516 102
0.065226696 -0.028538136 0.30907375 0.0016781145 541 107
0.06648422 -0.028465768 0.30819842 0.0017169686 527 104
0.067595154 -0.028334986 0.30668268 0.0016342587 571 113
0.06867566 -0.028197082 0.30508178 0.0016403891 573 113
0.069974206 -0.028152442 0.30448133 0.0015808227 599 118
0.071320631 -0.028128449 0.30409479 0.0015771268 627 124
0.072784565 -0.028150832 0.30419946 0.0015844179 614 121
0.072977319 -0.027690038 0.29907477 0.0015307647 641 127
0.07440763 -0.027707228 0.29910421 0.0014948457 662 131
0.075804174 -0.027711445 0.29898238 0.0014866674 656 130
0.077160046 -0.02770091 0.29868996 0.0015127609 649 128
0.078489847 -0.02768155 0.29829052 0.0015006532 659 130
0.079911336 -0.027694639 0.29822856 0.0015079124 666 132
0.080816261 -0.027531307 0.2962552 0.0014461614 691 137
0.082101516 -0.027500838 0.29570001 0.001485556 663 131
0.083475299 -0.027500538 0.29545596 0.0014817331 689 136
0.08477743 -0.027477028 0.29494891 0.001456772 690 136
0.085477576 -0.027262269 0.29237691 0.0014546481 686 136
0.08542791 -0.026818857 0.28734484 0.0013590491 775 153
0.087516069 -0.027049918 0.28952655 0.0013764452 744 147
0.089362197 -0.02720027 0.29082498 0.0013809908 748 148
0.089388758 -0.02680058 0.28622967 0.001323741 804 159
0.090365589 -0.026693396 0.28474855 0.0012674514 870 172
0.091474749 -0.026627848 0.28369772 0.0012692179 870 172
0.092701152 -0.026597822 0.28301001 0.0012786762 867 171
0.093718298 -0.026509454 0.28168643 0.0012861581 842 166
0.094682597 -0.026408814 0.28021818 0.0012807002 872 172
0.094962545 -0.026122684 0.27677041 0.0012373973 912 180
0.096515149 -0.026189651 0.27704981 0.0012319075 911 180
0.09777984 -0.026177749 0.27647635 0.0012130165 948 187
0.099046767 -0.026166754 0.27589503 0.0011913544 956 189
0.099418908 -0.025922731 0.27284354 0.0011218726 1052 208
0.10078432 -0.025940649 0.27253532 0.0011253557 1058 209
0.10234502 -0.026007738 0.27272421 0.0011330413 1052 208
0.10346483 -0.025962505 0.2717171 0.0011149048 1091 216
0.10442711 -0.025879361 0.2702983 0.0011029406 1089 215
0.10544373 -0.025811553 0.26902568 0.0010873358 1115 221
0.10638465 -0.025727071 0.26756594 0.0010939725 1124 222
0.10728551 -0.025635036 0.2660155 0.0011051418 1109 219
0.1082453 -0.025559092 0.26462063 0.0010899055 1135 225
0.10936137 -0.025521392 0.26360998 0.0010888166 1111 220
0.11062462 -0.02551851 0.26294675 0.0010935802 1109 219
0.11194814 -0.025529437 0.26241365 0.0010995273 1085 215
0.11315913 -0.025514746 0.26160705 0.0011105054 1072 212
0.11345855 -0.025297137 0.25871763 0.0011281866 1051 208
0.11409522 -0.025158688 0.25664088 0.0011130676 1056 209
0.11528082 -0.025142983 0.25581661 0.0011023346 1101 218
0.11588057 -0.025001219 0.2537131 0.0011145946 1068 211
0.11699104 -0.024971491 0.25275332 0.0011346547 1028 203
0.11827422 -0.024978867 0.25217542 0.0011624089 1004 199
0.11913022 -0.02489681 0.2507059 0.0011620036 1007 199
0.11993235 -0.024805311 0.24915905 0.0011657046 996 197
0.12087575 -0.024744608 0.24794284 0.0011922924 945 187
0.12120911 -0.024561511 0.24552773 0.001242275 901 178
0.12191623 -0.024457069 0.24393141 0.0012528193 873 173
0.12379144 -0.024586698 0.2446994 0.0012824992 836 165
0.12461361 -0.024506684 0.24341418 0.0013150803 818 162
0.1251277 -0.024368236 0.24159102 0.0012897719 827 163
0.12573956 -0.02425131 0.2400275 0.0013169397 799 158
0.12665893 -0.02419536 0.23911513 0.0014024655 723 143
-0.1419905 -0.022815593 0.23747183 0.0019256542 474 93
-0.1439133 -0.023321733 0.24241687 0.0019326095 453 89
-0.14445177 -0.023610318 0.24513562 0.0020722433 395 78
-0.14366171 -0.023684876 0.2456761 0.0018659619 456 90
-0.14251563 -0.023701537 0.24566513 0.00174999 493 97
-0.14226727 -0.023869107 0.24726892 0.0017659257 510 101
-0.13872424 -0.023481965 0.24318005 0.0015538309 611 121
-0.14051697 -0.023999171 0.2485112 0.0017034488 532 105
-0.14150836 -0.024387656 0.25256515 0.001779234 507 100
-0.14293273 -0.024858549 0.25753191 0.0017705099 516 102
-0.14058582 -0.024676198 0.25578997 0.001630903 573 113
-0.14027758 -0.024851616 0.2578142 0.0016031308 587 116
-0.13893521 -0.024845401 0.25801212 0.0015068902 625 123
-0.13851659 -0.025005832 0.25999743 0.0015450515 633 125
-0.13964477 -0.025451256 0.26500747 0.00155946 610 120
-0.1390841 -0.025594516 0.26693124 0.0016075153 613 121
-0.1379631 -0.025636461 0.26784942 0.0014866263 639 126
-0.13743128 -0.025789797 0.26997921 0.0014614176 682 135
-0.13548221 -0.02567758 0.26936948 0.0013989701 736 145
-0.13331749 -0.025521822 0.26833206 0.0013899913 747 148
-0.13253337 -0.02562988 0.27009752 0.0014097841 735 145
-0.13076901 -0.025548648 0.26989412 0.0013381606 784 155
-0.1291015 -0.025484843 0.2698918 0.001309137 796 157
-0.1270154 -0.02533621 0.26900145 0.0012030618 931 184
-0.12578312 -0.025356537 0.26991302 0.0012035758 946 187
-0.12398751 -0.025262525 0.269613 0.001134236 1041 206
-0.12332175 -0.025399176 0.27177957 0.0012016442 966 191
-0.12271164 -0.025550405 0.27411041 0.001213751 973 192
-0.12154081 -0.025586948 0.27521312 0.0012434057 911 180
-0.12065873 -0.025685772 0.27698389 0.0012922006 866 171
-0.1194483 -0.02571615 0.27801192 0.0012924456 857 169
-0.11826791 -0.025753764 0.27910975 0.0012968455 861 170
-0.11524618 -0.025386633 0.27580029 0.001282825 862 170
-0.11448197 -0.025514014 0.27784333 0.0013005122 838 166
-0.11360441 -0.025618864 0.27963206 0.001308648 827 163
-0.11194185 -0.025547072 0.2794778 0.0013249841 803 159
-0.10995364 -0.025398316 0.27845949 0.0013368736 799 158
-0.10778254 -0.025203135 0.27690685 0.0013209111 795 157
-0.10612591 -0.025124889 0.27661499 0.0012891898 821 162
-0.10444183 -0.025038088 0.27620748 0.0012982235 828 164
-0.10123767 -0.02458 0.27167436 0.0011888383 942 186
-0.10022981 -0.024650211 0.27295434 0.0012707991 872 172
-0.098666623 -0.024583897 0.27270472 0.0012840034 836 165
-0.097377576 -0.024585029 0.27318412 0.001284324 837 165
-0.09634649 -0.024652198 0.27438089 0.0013491714 778 154
-0.096232846 -0.024959153 0.27823541 0.001401567 720 142
-0.094854325 -0.024941998 0.27846447 0.0014054799 738 146
-0.094688989 -0.02524785 0.28228691 0.0015157282 666 132
-0.094178811 -0.025469143 0.28515509 0.0015261355 653 129
-0.093205951 -0.025569897 0.28666139 0.0015311382 658 130
-0.092876188 -0.025852611 0.29019627 0.0015580874 619 122
-0.095525369 -0.026985263 0.30327436 0.0016768049 529 104
-0.097400501 -0.027930129 0.31425232 0.0018602362 457 90
-0.09582939 -0.027900578 0.31426138 0.0018471739 478 94
-0.093968496 -0.027784426 0.31327644 0.001919145 475 94
-0.091931336 -0.027611654 0.31163359 0.0017221306 541 107
-0.092273556 -0.028159468 0.31811154 0.0018823728 457 90
-0.089439273 -0.027739953 0.31364775 0.0017028188 562 111
-0.087247327 -0.027509045 0.31129521 0.0017220032 515 102
-0.085614294 -0.027449546 0.31086525 0.0016127564 590 116
-0.08453007 -0.027566982 0.31242558 0.0016832572 541 107
-0.083256267 -0.027625613 0.31330737 0.0016644743 571 113
-0.0815925 -0.027554635 0.31270602 0.0016969197 563 111
-0.080483101 -0.027671687 0.31422615 0.0016367754 575 114
-0.079549663 -0.027854672 0.3164846 0.0017363802 517 102
-0.07834819 -0.027948907 0.3177245 0.0017530081 516 102
-0.076150082 -0.027684415 0.31487387 0.0017213931 537 106
-0.074119881 -0.027471846 0.31260011 0.0016686284 564 111
-0.072195105 -0.027290676 0.31067103 0.0015259689 621 123
-0.070597611 -0.027228378 0.31008396 0.00163995 594 117
-0.069214292 -0.027247811 0.31041774 0.0015771633 602 119
-0.067587994 -0.02717039 0.30963862 0.0016094403 582 115
-0.066167787 -0.027174264 0.30977678 0.0015595461 626 124
-0.064547509 -0.027094325 0.30895081 0.0015875618 598 118
-0.063453063 -0.027236482 0.31064931 0.001620496 568 112
-0.062106881 -0.027274657 0.31115463 0.0016340563 579 114
-0.060724452 -0.027298348 0.31148738 0.0016325351 578 114
-0.059079163 -0.027202155 0.31044501 0.0016568047 556 110
-0.057209332 -0.026995229 0.30813166 0.0016393621 564 111
-0.055356801 -0.026786137 0.30578661 0.0016055229 590 116
-0.053256039 -0.02644287 0.30190319 0.0016293548 586 116
-0.051434185 -0.026223382 0.29942673 0.0015814268 610 120
-0.049783498 -0.026081469 0.29783055 0.0016742004 573 113
-0.048211943 -0.025974143 0.29662436 0.0016436675 572 113
-0.046435103 -0.025746729 0.29404211 0.0016491456 557 110
-0.044831134 -0.025604378 0.292427 0.0016412541 568 112
-0.043432832 -0.025574313 0.29209051 0.001618252 593 117
-0.042193528 -0.025638934 0.29283196 0.001699625 544 107
-0.041094296 -0.025795752 0.2946232 0.0016401332 570 113
-0.040118437 -0.026043374 0.29744849 0.0018091367 491 97
-0.038862742 -0.026120428 0.29832301 0.0019561886 441 87
-0.038301289 -0.026686849 0.30478397 0.0022817873 351 69
-0.037532754 -0.027146604 0.31002408 0.0024890534 308 61
-0.036237378 -0.027246615 0.31115353 0.0024627934 314 62
-0.034479138 -0.026992502 0.30823734 0.0023226694 350 69
