# .PCD v0.7 - Point Cloud Data file format
VERSION 0.7
FIELDS x y z noise intensity gray
SIZE 4 4 4 4 2 1
TYPE F F F F U U
COUNT 1 1 1 1 1 1
WIDTH 828
HEIGHT 1
VIEWPOINT 0 0 0 1 0 0 0
POINTS 828
DATA ascii
-0.061726101 -0.0081976466 0.22065197 0.0012236704 873 178
-0.060846388 -0.0082171392 0.22133164 0.0012538909 889 182
-0.061749231 -0.00848216 0.22861999 0.0013369293 803 162
-0.06082996 -0.0085017728 0.22928917 0.0013582929 783 158
-0.059903402 -0.0085210456 0.22994033 0.0013128605 823 167
-0.059047326 -0.0085512204 0.2308774 0.0013712331 755 152
-0.058357038 -0.0086069629 0.23249698 0.0013489445 753 151
-0.057736501 -0.0086752754 0.23444915 0.0013082025 824 167
-0.05835465 -0.0089358827 0.24159361 0.0014605161 707 141
-0.057331514 -0.0089504225 0.24208009 0.0014246161 724 145
-0.056300581 -0.0089642992 0.24254099 0.0014799832 702 140
-0.055376858 -0.0089961551 0.2434811 0.0015529402 632 124
-0.054321714 -0.0090075424 0.24386017 0.0014382054 694 138
-0.053511411 -0.0090608662 0.24536799 0.0014904669 667 132
-0.052314654 -0.0090496438 0.24512145 0.0014729953 657 130
-0.05105802 -0.0090273404 0.24456804 0.0013868519 773 156
-0.052582026 -0.0095067639 0.2576035 0.0015298186 651 128
-0.051456962 -0.0095183291 0.25795767 0.0015767238 608 119
-0.049885977 -0.0094460063 0.25603226 0.0015219119 620 121
-0.049255457 -0.0095525701 0.25895008 0.0015150587 664 131
-0.049439017 -0.009826229 0.26639318 0.0015799955 604 118
-0.048206355 -0.0098251766 0.26638427 0.0015481241 625 122
-0.04693279 -0.009815515 0.26613712 0.001497548 660 130
-0.045658603 -0.0098051997 0.26586768 0.0015892677 594 115
-0.044004757 -0.0097105373 0.26330683 0.0015153668 634 124
-0.042650785 -0.0096785557 0.26244164 0.0015119419 675 134
-0.043977544 -0.010270784 0.27849868 0.0016302246 586 114
-0.043061383 -0.010359037 0.28088635 0.0017193222 543 104
-0.041991871 -0.010414729 0.28238779 0.0016485197 553 106
-0.042109337 -0.010777785 0.29221973 0.0017502655 533 102
-0.041314613 -0.010923637 0.29615909 0.0018892675 469 87
-0.039538044 -0.010810988 0.29308742 0.0017126172 517 98
-0.037971172 -0.010749735 0.29140708 0.0016521564 570 110
-0.03703684 -0.01086963 0.29463527 0.0017172307 543 104
-0.036031932 -0.01097715 0.29752573 0.0017380212 537 103
-0.035029382 -0.011093926 0.30066505 0.0017258514 514 98
-0.033672906 -0.011103612 0.30090058 0.0017060889 544 104
-0.032875668 -0.011306464 0.30636913 0.0017434112 524 100
-0.032017022 -0.011505458 0.31173134 0.0017528036 513 97
-0.030583769 -0.011506968 0.31174186 0.0018296428 495 93
-0.02945398 -0.011628433 0.31500149 0.0018204481 486 91
-0.027675482 -0.011493105 0.31130484 0.001636819 580 112
-0.026234394 -0.011490753 0.31121054 0.0016409873 570 110
-0.024666384 -0.011429322 0.30951664 0.0015967967 608 119
-0.02329273 -0.011455928 0.31020752 0.0014937938 654 129
-0.021693261 -0.011367688 0.30778947 0.0014111073 716 143
-0.020376459 -0.011425583 0.30932918 0.0014472975 712 142
-0.018951088 -0.011426738 0.30933368 0.0015440956 620 121
-0.01747385 -0.01139426 0.30842903 0.0014830541 681 135
-0.016080828 -0.011415807 0.30898818 0.001504814 648 128
-0.014666457 -0.011424914 0.30921218 0.0014172612 710 141
-0.013268231 -0.011449922 0.30986813 0.0014849285 696 138
-0.011810603 -0.011423512 0.30913436 0.0016116402 602 117
-0.010353953 -0.011390924 0.30823538 0.0015086975 667 132
-0.0089288121 -0.011388139 0.3081449 0.0016529287 577 112
-0.0074926428 -0.011367564 0.3075752 0.0015109205 639 126
-0.0060861432 -0.011392907 0.30825001 0.0015936408 613 120
-0.0046503227 -0.011362081 0.30740744 0.0015575291 608 119
-0.0032320849 -0.011366005 0.30750716 0.0014895073 670 132
-0.0018072345 -0.011334602 0.30665344 0.0016264536 575 111
-0.00039053985 -0.011312178 0.306045 0.0015268868 644 127
0.0010211542 -0.011296411 0.30561894 0.0015058757 654 129
0.0024231398 -0.01125385 0.3044703 0.0014488831 686 136
0.0038554748 -0.011331742 0.30658278 0.0015638531 633 124
0.0052507492 -0.011288125 0.30541 0.001618138 588 114
0.0066498187 -0.011269407 0.30491313 0.001482334 665 131
0.0080431355 -0.011249184 0.30437762 0.001468905 671 133
0.0093361242 -0.011115526 0.30077478 0.0014711225 680 135
0.010770848 -0.011163378 0.30208528 0.0015264808 630 124
0.012068317 -0.011074311 0.29969254 0.0015020462 667 132
0.013489226 -0.011105186 0.30054742 0.0015195106 660 130
0.014846629 -0.011082898 0.29996517 0.0014935515 657 130
0.016210975 -0.011069151 0.29961565 0.0015557144 637 125
0.017557643 -0.011046443 0.29902491 0.0015490802 619 121
0.018804088 -0.010968584 0.29694226 0.0015523857 620 121
0.020019934 -0.010884663 0.29469642 0.0015363724 619 121
0.021146873 -0.010766155 0.29151455 0.0015639282 634 124
0.022062188 -0.010560521 0.28597352 0.0014842693 656 129
0.023322387 -0.010533862 0.28527912 0.0015263734 635 125
0.024626818 -0.010528963 0.28517431 0.0015061918 642 126
0.025779175 -0.010462836 0.28341126 0.0014515192 686 136
0.027090745 -0.010464596 0.28348693 0.0015886078 605 118
0.028268233 -0.010416782 0.28221941 0.0014635046 674 133
0.029461853 -0.01037886 0.28121921 0.0015346186 644 127
0.030455314 -0.010276595 0.27847469 0.0014378299 700 139
0.031745195 -0.01027858 0.27855405 0.0014630576 689 137
0.033278622 -0.0103562 0.28068233 0.0015538818 624 122
0.034584649 -0.010359892 0.28080583 0.0014780291 661 130
0.036175095 -0.010445444 0.2831468 0.0015505773 640 126
0.037748516 -0.010520294 0.28519624 0.0016847273 553 106
0.039599769 -0.010664932 0.28913584 0.0019099956 456 85
0.040754959 -0.010618796 0.28790119 0.0019251907 433 79
0.041673698 -0.0105159 0.28512481 0.001694525 528 101
0.041979942 -0.010269463 0.27845323 0.0015251258 627 123
0.042940743 -0.010193015 0.27638739 0.0014288061 690 137
0.044080395 -0.0101622 0.27555555 0.0014095261 726 145
0.045220617 -0.010133238 0.27477029 0.0014130425 719 143
0.045270327 -0.0098681422 0.26757818 0.0013024407 805 163
0.046849072 -0.0099415677 0.26956123 0.0014177542 713 142
0.047283396 -0.0097746216 0.26502234 0.0013318508 779 157
0.048308592 -0.0097351531 0.26393545 0.0013413555 791 160
0.049389224 -0.0097085219 0.26319176 0.0013951926 733 147
0.050121449 -0.0096163191 0.2606656 0.001301627 827 168
0.051410343 -0.0096327374 0.26107845 0.0013943544 742 149
0.052451011 -0.0096029574 0.26023352 0.001377887 747 150
0.053467959 -0.0095702652 0.25930381 0.0013166458 817 165
0.054651503 -0.0095681679 0.25919691 0.0013321219 784 158
0.055653822 -0.0095351115 0.25824484 0.0013264681 813 165
0.056625023 -0.0094982218 0.25718242 0.0012939571 840 171
0.058535639 -0.009617188 0.26033214 0.0013395844 802 162
0.059554812 -0.0095878541 0.25945914 0.0013681127 762 153
0.060471252 -0.0095434627 0.25817129 0.0013500332 788 159
0.061534539 -0.0095235156 0.25753704 0.0013176874 794 160
0.063079596 -0.0095774736 0.2588923 0.0013961175 744 149
0.064621121 -0.0096288966 0.26016885 0.0014488096 710 141
0.066121839 -0.0096724704 0.26122278 0.0014034129 745 149
0.067983888 -0.0097663887 0.2636247 0.0014150195 730 146
0.069375709 -0.0097906338 0.26413396 0.0013860528 742 149
0.071520165 -0.0099184122 0.26742336 0.001447069 705 140
0.072241455 -0.0098478394 0.26535276 0.0014387359 704 140
0.07383699 -0.0098968074 0.2664921 0.0013795433 742 149
0.075400122 -0.0099398913 0.26745939 0.0014182348 721 144
0.076449417 -0.0099149412 0.26658329 0.0014428807 690 137
0.07686986 -0.0098105259 0.26356089 0.0012579269 862 176
0.07825496 -0.0098305698 0.26387098 0.0013075504 825 167
0.079847857 -0.009875698 0.26483941 0.0013475736 767 154
0.081910379 -0.0099766506 0.26728749 0.0014179937 711 142
0.082875744 -0.009942947 0.26611197 0.0012837122 821 166
0.084307387 -0.0099653555 0.26642391 0.0013342829 816 165
0.085468575 -0.0099556064 0.26586077 0.0013939927 707 141
0.086308777 -0.0099092852 0.26430744 0.0012526911 872 178
0.087991931 -0.0099596865 0.26531804 0.0013257795 787 159
0.089931414 -0.01003729 0.26703295 0.001264917 876 179
0.091674224 -0.010091114 0.26809388 0.0012829157 853 174
0.093175463 -0.010117243 0.26839927 0.001359308 783 158
0.094630465 -0.010137721 0.26853573 0.0013645339 750 150
0.0963732 -0.010188078 0.26944309 0.0013122921 815 165
0.098035716 -0.010228751 0.27007276 0.0012933053 819 166
0.10036644 -0.010337196 0.27246711 0.001371366 763 153
0.10246506 -0.010419289 0.27413964 0.0014538004 702 140
0.10454479 -0.010497423 0.27568182 0.0015207222 638 125
0.10516074 -0.010428463 0.27334201 0.0014207304 694 138
0.10735154 -0.010515454 0.27507031 0.0013796029 745 149
0.10865848 -0.01051481 0.27448329 0.0013461364 788 159
0.112455 -0.010752218 0.28007916 0.0014750025 677 134
0.11462054 -0.010829921 0.28147924 0.0015903929 595 116
0.1187045 -0.011084957 0.28745133 0.001656456 555 107
0.1207811 -0.011148821 0.28843004 0.0017916744 498 94
0.12560987 -0.011462374 0.29582897 0.0021615264 369 65
0.12584746 -0.011354618 0.29232678 0.0020241521 400 72
0.12654379 -0.011290193 0.28993779 0.0017802169 488 92
0.12699009 -0.011205127 0.28701723 0.0016641504 555 107
0.12771636 -0.01114635 0.28477058 0.0015212209 631 124
0.12889871 -0.011128215 0.28356111 0.0014860566 652 128
0.13117957 -0.011204294 0.28474501 0.0015566013 620 121
0.1341503 -0.011337065 0.28735572 0.0017086152 546 105
0.13640629 -0.011407292 0.28837124 0.0017877838 488 92
0.13686545 -0.011327357 0.28559935 0.0017594203 514 98
0.1374273 -0.01125747 0.28310311 0.0016241942 569 110
0.13524845 -0.010966767 0.27509397 0.0015530083 622 122
0.13339815 -0.010708265 0.26794872 0.0014492044 677 134
0.13204916 -0.010494739 0.26198345 0.0014015407 713 142
0.1335257 -0.010507765 0.26171592 0.0014606093 708 141
0.13477127 -0.010502541 0.2610285 0.0014815616 669 132
0.13612293 -0.010505604 0.26058689 0.0014931085 659 130
0.13670193 -0.010449542 0.25872523 0.0015243191 628 123
-0.12797001 -0.007579233 0.21365401 0.0017862071 484 91
-0.12534595 -0.0074871206 0.21082665 0.0017308006 536 102
-0.12451245 -0.0075012972 0.21103753 0.0017367688 525 100
-0.12379472 -0.0075227534 0.21149689 0.0016752265 547 105
-0.12339062 -0.0075638131 0.21255241 0.0015997643 612 119
-0.12205125 -0.0075477581 0.21205013 0.0015747159 619 121
-0.1207286 -0.0075324611 0.2116175 0.0015074334 626 123
-0.12039472 -0.0075791334 0.21297513 0.0014647663 657 130
-0.11875486 -0.0075436933 0.21207467 0.0014415313 706 141
-0.11859418 -0.0076024244 0.2138714 0.0015368783 642 126
-0.11693839 -0.0075655147 0.21302652 0.0014700126 660 130
-0.11582807 -0.0075635351 0.21321175 0.0013509336 748 150
-0.11530688 -0.0076003494 0.21453756 0.0013323125 775 156
-0.11308866 -0.007524943 0.21273766 0.0013602875 739 148
-0.11348175 -0.0076235132 0.21589862 0.0013082395 793 160
-0.11264896 -0.0076408423 0.21680279 0.0012928684 815 165
-0.11239089 -0.0076978751 0.21887262 0.0013695202 768 154
-0.11022613 -0.0076241512 0.2172548 0.0013051761 782 158
-0.10949466 -0.0076490822 0.21847233 0.0012332643 900 184
-0.10844395 -0.0076519921 0.21908592 0.0011457627 1022 211
-0.10796721 -0.0076958719 0.22089507 0.0011943729 929 191
-0.10663414 -0.007678987 0.22097726 0.001118571 1054 219
-0.10638412 -0.0077405567 0.2233319 0.0011216238 1063 221
-0.10617869 -0.0078066951 0.22583596 0.0011680294 959 197
-0.10545535 -0.0078357542 0.22727917 0.001159146 984 203
-0.10698435 -0.0080345897 0.23366575 0.0011788742 960 198
-0.10618905 -0.0080612851 0.235062 0.0012042599 931 191
-0.10730268 -0.008235069 0.24075846 0.0012279475 919 188
-0.1090517 -0.008462009 0.24803287 0.0012693933 833 169
-0.108161 -0.0084869033 0.24939527 0.0011264517 1035 214
-0.10666776 -0.0084645478 0.2493588 0.001142232 1006 208
-0.10315455 -0.0082795508 0.24450399 0.0011159434 994 205
-0.10195011 -0.0082777226 0.2450318 0.0010468054 1159 242
-0.10110515 -0.008305382 0.24642015 0.0011528861 1036 215
-0.099788219 -0.0082944669 0.24665017 0.0011826231 949 195
-0.098344512 -0.0082726264 0.24653754 0.001197055 931 191
-0.096494541 -0.008215664 0.24535714 0.0011962068 934 192
-0.0952923 -0.008213128 0.24578203 0.001209173 916 188
-0.094678044 -0.0082618361 0.24772668 0.0012406821 899 184
-0.091200449 -0.0080587622 0.24209626 0.0012119889 935 192
-0.088855445 -0.0079518547 0.23932092 0.0011622395 980 202
-0.087430723 -0.0079256045 0.23894966 0.0011046344 1073 223
-0.086620606 -0.0079551106 0.24024351 0.0011800292 985 203
-0.084448516 -0.0078586582 0.23771416 0.0011122805 1071 222
-0.083629273 -0.0078871967 0.23894656 0.0011065868 1108 231
-0.08389651 -0.0080203805 0.24334122 0.001214646 957 197
-0.083558813 -0.0080986191 0.24606259 0.001334365 825 167
-0.08239834 -0.0080981897 0.24638173 0.0013566433 752 151
-0.080215059 -0.0079957945 0.2435796 0.0012940285 816 165
-0.077016324 -0.0077877627 0.23753302 0.001334927 767 154
-0.073006138 -0.007490383 0.22872899 0.0012617455 869 177
-0.071292304 -0.0074232682 0.22693057 0.0012366246 911 187
-0.069122814 -0.0073059681 0.2235793 0.0012173976 906 185
-0.068320803 -0.0073318239 0.22459383 0.0012173598 964 198
-0.067897841 -0.0073997937 0.22688937 0.0012905435 848 172
-0.065426171 -0.007243108 0.22228265 0.0012544573 877 179
-0.06454131 -0.0072598811 0.2229843 0.0012387509 915 187
-0.063656747 -0.0072772363 0.22369391 0.0012825832 867 177
-0.064249329 -0.007466834 0.22969234 0.001397334 739 148
-0.062405165 -0.0073748631 0.22702117 0.0013476196 786 159
-0.060151137 -0.0072304686 0.2227214 0.0012553658 872 178
-0.060432721 -0.0073911445 0.22780941 0.001243872 899 184
-0.060050186 -0.0074748653 0.23052067 0.0013252926 796 161
-0.060337219 -0.0076464671 0.23593727 0.0014556989 699 139
-0.058966201 -0.0076103993 0.23493922 0.0014332364 702 140
-0.057710201 -0.0075880992 0.23435675 0.00137819 748 150
-0.058561705 -0.0078473557 0.24246475 0.0014538493 691 137
-0.05757707 -0.0078658806 0.24313003 0.0014750562 663 131
-0.056592062 -0.0078850901 0.2438089 0.0015299362 650 128
-0.05676759 -0.0080700601 0.24960744 0.001605627 613 120
-0.055245999 -0.0080164345 0.24801999 0.0016067838 600 117
-0.053773552 -0.0079678232 0.24657963 0.0015683369 607 118
-0.052451398 -0.0079398602 0.2457709 0.0013982529 708 141
-0.051049821 -0.0078983745 0.24453661 0.0013791412 758 152
-0.051867768 -0.0082061719 0.25411156 0.0015157997 656 129
-0.051173702 -0.0082834475 0.25654411 0.0015893726 609 119
-0.050181892 -0.0083150417 0.25755659 0.0015781076 605 118
-0.049597066 -0.0084172376 0.26075086 0.0015570663 619 121
-0.048076473 -0.0083617531 0.25905532 0.0015831362 620 121
-0.048136648 -0.0085853804 0.2660023 0.0015599054 621 122
-0.046890948 -0.0085817007 0.26590222 0.0015802676 595 116
-0.045663334 -0.0085812202 0.2658968 0.0015316178 645 127
-0.044455696 -0.008584572 0.26600581 0.0014870286 670 132
-0.04400691 -0.0087388055 0.2707862 0.001574942 607 118
-0.041416578 -0.0084643662 0.26227993 0.0014665544 667 132
-0.042646371 -0.0089776209 0.27817768 0.0016048002 626 123
-0.042230163 -0.009165437 0.28398779 0.0017094008 551 106
-0.041045986 -0.0091932584 0.28483725 0.0016996649 537 103
-0.04058167 -0.0093894713 0.29090098 0.0017278749 532 102
-0.039919592 -0.0095517719 0.29591072 0.0018634467 485 91
-0.037999693 -0.0094139408 0.29162031 0.0017182329 515 98
-0.036547352 -0.009386085 0.29073501 0.0016386675 565 109
-0.035770435 -0.0095361685 0.29535934 0.001651776 568 110
-0.034756754 -0.009632512 0.2983171 0.0017192945 533 102
-0.033790581 -0.0097505031 0.30194342 0.0017255506 528 101
-0.032510027 -0.0097840168 0.30295235 0.001751193 516 98
-0.031620871 -0.0099436203 0.30786413 0.0017677603 510 97
-0.03060497 -0.010076495 0.31194708 0.0017689943 508 96
-0.029345972 -0.010138494 0.31383482 0.0018127174 484 91
-0.027818214 -0.010109255 0.31289822 0.0016746764 544 104
-0.026324386 -0.010089819 0.31226546 0.0016704152 566 109
-0.024894226 -0.010093953 0.3123624 0.0016852404 540 103
-0.023413369 -0.010076773 0.31180048 0.0015953615 579 112
-0.021828961 -0.01000986 0.3097007 0.0014779308 681 135
-0.020374382 -0.0099972775 0.3092832 0.0014835431 660 130
-0.018848576 -0.0099452185 0.30764559 0.0014303562 704 140
-0.017480789 -0.0099748466 0.30853626 0.0014750769 700 139
-0.016091419 -0.0099963211 0.30917606 0.0015510073 627 123
-0.01472014 -0.010034306 0.31032795 0.0015050115 661 130
-0.013281076 -0.010029294 0.31015176 0.0015230866 639 126
-0.011800899 -0.0099882735 0.30886388 0.0014540754 675 134
-0.01035132 -0.0099654319 0.30814025 0.0014361001 710 141
-0.008930767 -0.0099677118 0.30819544 0.0015064537 649 128
-0.0075141941 -0.0099761374 0.30844277 0.0014905048 658 130
-0.0060614487 -0.0099292519 0.30698216 0.0015436311 632 124
-0.0046253735 -0.0098893857 0.30574089 0.001490246 661 130
-0.0032392568 -0.0099682324 0.30817208 0.0015701008 620 121
-0.0018115418 -0.0099423211 0.30736685 0.0015344722 625 122
-0.00038949281 -0.0098725194 0.3052071 0.001496406 667 132
0.0010356109 -0.010025208 0.309928 0.0016118221 588 114
0.0024394786 -0.0099144196 0.30650586 0.001511941 640 126
0.0038514605 -0.0099058533 0.30624619 0.0015143615 635 125
0.0052347546 -0.0098479213 0.30446261 0.0014687559 681 135
0.006619317 -0.0098163961 0.30349761 0.0015173083 646 127
0.0080283768 -0.0098258704 0.30380234 0.0014965383 642 126
0.0094545847 -0.0098503912 0.30457455 0.0014870628 666 132
0.01083763 -0.0098294169 0.30394194 0.0015031894 641 126
0.012171043 -0.009773396 0.30222753 0.0015650735 614 120
0.013443474 -0.0096849632 0.29951242 0.0015405047 625 122
0.014667193 -0.0095812054 0.29632464 0.0014636135 680 135
0.016061071 -0.0095968191 0.29683018 0.0014901003 677 134
0.017461378 -0.0096135195 0.29737088 0.0015183296 645 127
0.018837061 -0.0096152173 0.29744884 0.0015911476 619 121
0.020091372 -0.0095589375 0.29573432 0.001561078 612 119
0.021184104 -0.009437833 0.29201469 0.0016059539 591 115
0.022167051 -0.0092852227 0.28732038 0.0015079323 651 128
0.023348026 -0.0092281038 0.28558084 0.0015216004 644 127
0.024563935 -0.0091901561 0.28443483 0.0014331307 697 139
0.025879566 -0.009191473 0.28450415 0.0014737612 684 136
0.0268621 -0.0090800691 0.28108415 0.0015380541 615 120
0.028113304 -0.0090655573 0.28066301 0.001410928 716 143
0.029430671 -0.0090727182 0.28091258 0.0014750173 679 135
0.030530086 -0.0090149194 0.27915004 0.0014197421 705 140
0.031818759 -0.0090154195 0.27919173 0.0014560742 691 137
0.033288199 -0.0090651093 0.28075594 0.0014532561 701 139
0.034782767 -0.0091176648 0.28240794 0.0015743402 631 124
0.036592878 -0.0092461612 0.28641096 0.001628538 575 111
0.038466211 -0.0093811275 0.29061326 0.0018077043 511 97
0.039682575 -0.0093521839 0.28973597 0.0019631891 445 82
0.040659469 -0.0092705227 0.28722295 0.0018976064 453 84
0.041449595 -0.0091527672 0.28358865 0.0016200911 577 112
0.042305253 -0.0090562385 0.28060889 0.0015168313 645 127
0.043251742 -0.0089843022 0.27838784 0.0015026609 641 126
0.044203062 -0.0089174826 0.27632186 0.0014863152 668 132
0.045173723 -0.0088581964 0.27448565 0.0014307715 704 140
0.045868285 -0.0087494729 0.27111363 0.0013922806 741 148
0.04708048 -0.0087426361 0.27089462 0.0014379239 698 139
0.04762549 -0.0086154584 0.26694253 0.001353654 765 154
0.04852521 -0.0085572358 0.26512253 0.0013906339 742 149
0.049195565 -0.0084624169 0.26216412 0.0013691593 754 151
0.050173007 -0.0084237028 0.26093894 0.0013549898 797 161
0.051327284 -0.0084157959 0.26066276 0.001441749 696 138
0.052317232 -0.0083819199 0.25957674 0.0013334074 792 160
0.05337267 -0.0083598197 0.2588495 0.0013057542 839 170
0.054885086 -0.0084086964 0.26031345 0.0014430607 726 145
0.056034967 -0.0084011275 0.26002306 0.0013642311 748 150
0.056808099 -0.0083385734 0.25802433 0.001325487 816 165
0.058015164 -0.0083409762 0.25802881 0.0014020489 759 152
0.059095468 -0.008325424 0.25747025 0.0013155263 803 162
0.060182903 -0.0083114691 0.25695348 0.0012818868 844 172
0.061638039 -0.008347854 0.25798452 0.0013439136 790 159
0.062136155 -0.0082557043 0.25503534 0.0012952958 842 171
0.063569993 -0.0082889944 0.2559531 0.0012870954 856 174
0.06547083 -0.008380848 0.25866818 0.0013602601 767 154
0.067980021 -0.0085458821 0.26362839 0.0014470454 699 139
0.069637999 -0.0085999789 0.26515254 0.001531033 647 127
0.07064493 -0.0085731894 0.26417172 0.0014366334 701 139
0.072352938 -0.0086309435 0.26578435 0.0014539754 673 133
0.073720634 -0.0086468495 0.26609543 0.0014423666 699 139
0.074891403 -0.0086395126 0.26567921 0.0013999086 727 145
0.076198906 -0.0086479327 0.2657353 0.0013675338 761 153
0.077150233 -0.008616305 0.26454872 0.0013337656 784 158
0.07833863 -0.0086117312 0.26418075 0.0013800784 748 150
0.079758443 -0.0086323451 0.26457167 0.0013274419 777 156
0.081091926 -0.0086431308 0.26464683 0.0013016396 837 170
0.082857229 -0.0086989282 0.26608393 0.0013309573 802 162
0.084542349 -0.0087447837 0.26719916 0.0013277007 809 164
0.085629001 -0.008728303 0.26639366 0.0013038414 813 165
0.087161303 -0.0087570688 0.26695335 0.0012946563 839 170
0.088955455 -0.008810956 0.26825991 0.0014122509 711 142
0.089593485 -0.0087504257 0.26606703 0.0012106254 911 187
0.091237783 -0.0087884888 0.26685646 0.0012286084 923 189
0.092752606 -0.0088132164 0.26722148 0.0013179906 813 165
0.094805114 -0.0088876886 0.2690731 0.0013393449 765 154
0.096251056 -0.0089040808 0.26914468 0.0013625894 760 153
0.097769924 -0.0089267045 0.26938486 0.0013471001 778 157
0.099590458 -0.0089759342 0.27040634 0.0013357718 813 165
0.10255329 -0.0091255605 0.27442339 0.001426233 713 142
0.1046103 -0.0091918381 0.27590376 0.0014941002 654 129
0.10625383 -0.0092205945 0.27623373 0.0014780029 679 135
0.10746645 -0.0092117097 0.27541628 0.0014108034 710 141
0.10892612 -0.0092239613 0.27521199 0.0013512903 768 154
0.11193028 -0.009365147 0.2788268 0.0014330585 708 141
0.11413853 -0.0094371904 0.28035128 0.0014996593 675 134
0.11856756 -0.0096890321 0.28717786 0.0016727897 566 109
0.12079404 -0.0097571528 0.28852022 0.001761217 515 98
0.12344814 -0.0098578669 0.29079831 0.0019333526 438 80
0.12504394 -0.009872755 0.29052144 0.0018894827 451 83
0.1263555 -0.0098651201 0.28956786 0.0016986344 522 99
0.12706111 -0.0098108649 0.28723907 0.0015393896 614 120
0.12775381 -0.0097568044 0.284915 0.0015076278 641 126
0.12910281 -0.0097534964 0.28407079 0.0014917784 649 128
0.13023877 -0.0097343344 0.28276294 0.001470316 666 132
0.13374814 -0.0098910965 0.28655457 0.0015699998 612 119
0.13608088 -0.0099584777 0.28774288 0.0017221025 526 100
0.13789098 -0.0099866148 0.28779769 0.0018264435 489 92
0.13833597 -0.0099163204 0.28503123 0.0017720502 503 95
0.1389569 -0.0098599344 0.28269079 0.001671867 549 105
0.13671547 -0.0096036121 0.27466214 0.0015619961 622 122
0.13509156 -0.0093953274 0.26806596 0.0014794675 654 129
0.13436101 -0.0092526581 0.26339605 0.0014862146 671 133
0.13552465 -0.0092419367 0.26252732 0.0014884721 673 133
0.13672023 -0.00923358 0.26176652 0.0014996917 643 126
0.13752189 -0.0091990335 0.26030955 0.0015780303 627 123
-0.12724723 -0.0064605791 0.2124334 0.0018639875 459 85
-0.12489158 -0.0063950471 0.21005094 0.0015823779 600 117
-0.12409217 -0.0064087603 0.21031599 0.0016161132 623 122
-0.12387172 -0.0064528701 0.21162164 0.0016626186 548 105
-0.12163509 -0.0063918051 0.20952423 0.0014770051 654 129
-0.1214927 -0.0064406837 0.21107824 0.0013993153 744 149
-0.12307487 -0.0065826704 0.21573149 0.0015497964 651 128
-0.12214147 -0.0065914541 0.21606936 0.0015901776 583 113
-0.12016836 -0.0065437807 0.21460618 0.0014801521 647 127
-0.11889996 -0.0065339603 0.21443309 0.001477823 673 133
-0.1179902 -0.0065438501 0.21495591 0.0014931354 662 131
-0.11658046 -0.0065259356 0.21461289 0.001407483 702 140
-0.11546155 -0.0065241177 0.21484447 0.0013841556 752 151
-0.11539618 -0.0065823593 0.21710059 0.0013794089 755 152
-0.114568 -0.0065977909 0.2179901 0.0013801192 739 148
-0.11316358 -0.0065800138 0.2178206 0.0013008728 832 169
-0.11154695 -0.0065494296 0.21725872 0.0012266766 933 191
-0.11034781 -0.0065429974 0.21752639 0.001282595 797 161
-0.10836404 -0.0064894469 0.21624985 0.0011497135 1009 209
-0.10739446 -0.0064961649 0.21700081 0.0010762477 1129 235
-0.10837639 -0.006622267 0.22176954 0.001230277 920 189
-0.10638259 -0.0065672612 0.22049426 0.0010817777 1105 230
-0.10632432 -0.0066318391 0.22324604 0.0010953723 1105 230
-0.10683317 -0.0067335181 0.22726917 0.0011956441 971 200
-0.1071191 -0.0068231532 0.23090725 0.0012551234 866 176
-0.10449946 -0.0067276526 0.22828068 0.0011514929 982 202
-0.10832814 -0.0070497203 0.23984158 0.0011937279 968 199
-0.11003994 -0.007239575 0.24694589 0.0013328054 808 163
-0.10890744 -0.0072444356 0.24775049 0.0012940046 785 158
-0.10478932 -0.0070485794 0.24166523 0.001053442 1165 244
-0.10866249 -0.0073919031 0.25406802 0.0012938881 921 189
-0.10380788 -0.0071425741 0.24609667 0.0011540789 967 199
-0.10274263 -0.0071512158 0.24698026 0.0011278662 1029 213
-0.1009744 -0.0071105571 0.24614429 0.0011821187 952 196
-0.0997319 -0.0071063954 0.24655311 0.0012183071 917 188
-0.097406559 -0.0070240488 0.2442271 0.0012313609 887 181
-0.094945602 -0.0069298022 0.24145821 0.0012088249 950 195
-0.093180001 -0.0068846121 0.24037242 0.0011953558 940 193
-0.092327088 -0.0069065709 0.24161315 0.0011807584 979 202
-0.091243915 -0.0069116428 0.24224856 0.0012268146 917 188
-0.089155369 -0.0068397135 0.2401644 0.0012139912 911 187
-0.087863348 -0.006827821 0.24016677 0.0011931376 931 191
-0.086642973 -0.006821258 0.24033928 0.0011948888 919 188
-0.084665403 -0.0067541138 0.23835713 0.0011040426 1053 218
-0.083342932 -0.0067381267 0.23815997 0.0010991384 1102 229
-0.082692698 -0.0067767948 0.23988032 0.0011720526 994 205
-0.083761685 -0.0069593731 0.2466906 0.0012634353 890 182
-0.082621306 -0.0069609345 0.24707806 0.001383018 765 154
-0.081200473 -0.0069385758 0.24660051 0.0013830723 744 149
-0.079180233 -0.0068636127 0.24423426 0.0014177079 714 142
-0.074169427 -0.0065234248 0.23239872 0.0013157899 792 160
-0.071791165 -0.0064081042 0.22854228 0.0012560891 870 177
-0.070208535 -0.0063613937 0.22711381 0.0012811809 828 168
-0.067797713 -0.0062370636 0.22289574 0.0012043084 897 183
-0.066929504 -0.0062529845 0.22367422 0.0011838068 984 203
-0.065267645 -0.0061940891 0.22176369 0.0012140865 919 188
-0.064219445 -0.006192477 0.22189111 0.0012301974 889 182
-0.063581772 -0.0062310426 0.22344854 0.0012762655 841 171
-0.062507868 -0.0062274281 0.22348391 0.0012526005 895 183
-0.061155085 -0.0061954395 0.22248995 0.0012564583 864 176
-0.06114354 -0.0063005607 0.22641182 0.0013128095 801 162
-0.059932917 -0.0062836362 0.22594042 0.0013091972 827 168
-0.060062975 -0.0064091715 0.23058431 0.0014009003 752 151
-0.059444919 -0.0064579737 0.23246191 0.0014093254 725 145
-0.058509327 -0.0064734449 0.233132 0.0013488326 765 154
-0.058815792 -0.006629495 0.23885912 0.0014457372 730 146
-0.058528967 -0.006723363 0.24234122 0.0015132148 648 128
-0.05762849 -0.0067490255 0.24335836 0.0014839045 687 136
-0.058265418 -0.0069593405 0.25102875 0.0015340891 638 125
-0.056856956 -0.0069289273 0.25001031 0.0015689541 623 122
-0.055115342 -0.0068558143 0.2474425 0.0014741078 676 134
-0.053914681 -0.0068483194 0.24723502 0.0014850823 675 134
-0.052898519 -0.0068644439 0.24787347 0.0014308215 725 145
-0.051938873 -0.0068887761 0.24880207 0.0015000459 645 127
-0.05103356 -0.0069215754 0.25003064 0.0015179943 637 125
-0.050498348 -0.0070072468 0.25316381 0.0014743708 698 139
-0.051145602 -0.0072649345 0.26250762 0.0016069042 587 114
-0.049541559 -0.0072075771 0.26046306 0.0016256658 581 113
-0.047990799 -0.0071553155 0.25859696 0.001504433 642 126
-0.047216557 -0.0072191171 0.26092049 0.0015608047 636 125
-0.047087837 -0.0073875277 0.26702061 0.0015993159 588 114
-0.045778602 -0.0073747961 0.26656917 0.0015270765 620 121
-0.044748161 -0.0074075144 0.26775631 0.0015740081 631 124
-0.043899078 -0.0074729603 0.27012253 0.0016487616 563 108
-0.042654935 -0.0074730106 0.27012122 0.0015763754 600 117
-0.041660495 -0.0075181262 0.27174535 0.0015628794 609 119
-0.040865116 -0.007603073 0.27480599 0.0015464672 642 126
-0.041125055 -0.007896075 0.28538293 0.0017234869 544 104
-0.039556459 -0.0078457547 0.2835483 0.0016791885 551 106
-0.039367162 -0.008074915 0.29181138 0.0016869074 554 106
-0.038091816 -0.0080896383 0.29232231 0.0018019561 504 95
-0.037038431 -0.0081543075 0.2946358 0.0017662095 507 96
-0.035837796 -0.0081902482 0.29590923 0.001718797 529 101
-0.034601949 -0.0082206652 0.29698142 0.001671921 545 104
-0.033660199 -0.0083263395 0.3007707 0.0016612732 564 109
-0.032728214 -0.0084436107 0.30497721 0.0017479269 530 101
-0.031980269 -0.008621023 0.31135419 0.0017613723 518 98
-0.030782653 -0.0086881965 0.31374842 0.0017630158 508 96
-0.029647682 -0.0087805493 0.31705105 0.0018050608 504 95
-0.027791047 -0.008657665 0.3125819 0.0017369001 514 98
-0.026295619 -0.0086400183 0.31191304 0.001597702 591 115
-0.024787221 -0.0086158179 0.31100813 0.0016197901 590 115
-0.023337524 -0.0086103026 0.31077847 0.001537416 645 127
-0.022030164 -0.0086600157 0.31254286 0.0016206342 585 113
-0.020337807 -0.0085547529 0.30871525 0.0015575949 626 123
-0.018916368 -0.0085561732 0.30873898 0.0014800408 674 133
-0.017598681 -0.0086085768 0.31060359 0.001535159 622 122
-0.016134391 -0.0085922005 0.3099879 0.0014366795 692 137
-0.014683912 -0.0085807098 0.30955014 0.0014521127 725 145
-0.013291418 -0.0086042779 0.31037888 0.0015818366 617 121
-0.011784877 -0.0085507929 0.30843008 0.0014692465 663 131
-0.010356353 -0.0085469931 0.30827543 0.0014813927 674 133
-0.0089389635 -0.0085526342 0.30846345 0.0015014197 654 129
-0.0074955411 -0.0085307863 0.30766207 0.0015039922 656 129
-0.0060477937 -0.0084926467 0.30627552 0.0015039491 648 128
-0.0046065371 -0.0084431218 0.3044807 0.0014187064 703 140
-0.0032312265 -0.0085240537 0.30739275 0.0015414275 636 125
-0.0018067353 -0.0085004121 0.30653602 0.001496773 649 128
-0.00039464165 -0.0085750679 0.3092263 0.0016328396 588 114
0.0010205202 -0.0084688505 0.30539653 0.00156363 607 118
0.0024316837 -0.0084719509 0.30551124 0.0015170805 645 127
0.0038524738 -0.008493999 0.30631161 0.001598223 602 117
0.0052296491 -0.0084338682 0.30415061 0.0015218041 649 128
0.0066142916 -0.0084086889 0.30325231 0.0014987122 647 127
0.0080297925 -0.0084246844 0.30384114 0.0014711657 688 137
0.0094920211 -0.0084776562 0.30576581 0.0016076991 592 115
0.010862371 -0.0084454753 0.3046214 0.0015141533 643 126
0.012188969 -0.0083905542 0.30265853 0.0015146623 638 125
0.013468579 -0.008317912 0.30005798 0.0015450142 638 125
0.014801084 -0.0082884375 0.29901624 0.0016051595 599 117
0.016027493 -0.0082096467 0.29619661 0.0014953015 660 130
0.017405523 -0.0082148006 0.29640692 0.0014640703 676 134
0.018647954 -0.0081598684 0.2944504 0.0015212301 656 129
0.019973939 -0.0081464769 0.29399383 0.0015323224 650 128
0.021099364 -0.0080581913 0.29083514 0.0015504833 620 121
0.022139924 -0.0079499902 0.28695792 0.0014841233 668 132
0.02337355 -0.007919413 0.28588262 0.0015579597 616 120
0.024585452 -0.0078851357 0.28467399 0.0014367804 689 137
0.025559979 -0.0077820616 0.28098142 0.0014435075 692 137
0.026759176 -0.0077540386 0.27999824 0.0014338106 718 143
0.02802106 -0.007745923 0.27973369 0.0014000512 740 148
0.029671658 -0.0078412471 0.28320476 0.0015339565 629 123
0.030490531 -0.007718001 0.27878097 0.0014147897 716 143
0.031829257 -0.0077309925 0.27927706 0.001421407 717 143
0.033563729 -0.0078353612 0.28307343 0.0014861347 663 131
0.034942914 -0.0078520803 0.28370237 0.001586818 606 118
0.036368754 -0.0078776991 0.28465149 0.0015907279 601 117
0.038225289 -0.0079915766 0.28878841 0.0017700547 508 96
0.039721154 -0.0080249254 0.29001355 0.0019650245 430 79
0.04068093 -0.0079513239 0.28737116 0.0017700351 493 93
0.041152935 -0.0077900277 0.28155637 0.0015331216 621 122
0.042314578 -0.007765146 0.2806688 0.0015619149 634 124
0.043571785 -0.0077587562 0.28044647 0.0015465841 630 124
0.04430123 -0.0076614632 0.27693498 0.001512531 640 126
0.045365423 -0.0076258876 0.27565053 0.0014672907 674 133
0.045659494 -0.007466319 0.26988035 0.0013856578 743 149
0.047699615 -0.0075931582 0.27445862 0.0014817225 672 133
0.048171047 -0.0074701798 0.27000266 0.001415145 713 142
0.048583303 -0.0073444485 0.26544291 0.0013943713 762 153
0.04920961 -0.0072564553 0.26224265 0.0013809587 743 149
0.050330553 -0.0072438708 0.26176271 0.0013448552 802 162
0.051387362 -0.0072228606 0.26097298 0.0013601159 770 155
0.05232548 -0.0071865106 0.25962353 0.0013164409 807 163
0.053508565 -0.0071846782 0.2595152 0.0013329354 822 167
0.055152379 -0.0072434354 0.26158866 0.0014106204 718 143
0.055454556 -0.0071272454 0.25733787 0.0013221866 795 161
0.056681663 -0.007132309 0.25745904 0.0012432822 885 181
0.05801969 -0.0071508363 0.25805867 0.0013975197 743 149
0.058947928 -0.0071191271 0.25683802 0.0013174573 786 159
0.060141049 -0.0071200286 0.2567862 0.0013104376 818 166
0.062006582 -0.0071989619 0.25953943 0.0014197715 723 144
0.062885225 -0.0071624955 0.25812301 0.0013893343 741 148
0.063740343 -0.0071247565 0.25665289 0.0013310772 804 163
0.065187663 -0.0071533849 0.25756431 0.0013526257 772 155
0.066577293 -0.0071747666 0.2582044 0.0013509949 767 154
0.068678811 -0.0072707604 0.2615172 0.0013865499 748 150
0.070920765 -0.0073780371 0.26522127 0.0014917155 681 135
0.072557941 -0.0074198167 0.26655662 0.0014599129 676 134
0.073876791 -0.0074281874 0.26667917 0.0014342312 714 142
0.075296789 -0.0074462867 0.26713839 0.0015349302 618 121
0.075768597 -0.0073715509 0.26425648 0.001333943 775 156
0.077268936 -0.007397668 0.26497865 0.0013043365 823 167
0.078539073 -0.0074012717 0.26488057 0.0014166174 738 148
0.080016792 -0.0074240239 0.26545367 0.0014294437 700 139
0.080981232 -0.0073991856 0.26431143 0.0013088072 820 166
0.082666196 -0.0074399393 0.26549751 0.0012958247 830 168
0.08352536 -0.007406265 0.26401293 0.0012377293 925 190
0.085441433 -0.0074659227 0.26583934 0.0012804149 838 170
0.087729029 -0.0075558689 0.26872268 0.0013469632 787 159
0.089094609 -0.0075649829 0.26871124 0.0013307033 772 155
0.089739636 -0.0075135138 0.26653355 0.0012496834 881 180
0.091316745 -0.0075404267 0.26712102 0.0013051064 829 168
0.092628941 -0.0075450316 0.26689985 0.0012629039 849 173
0.094596997 -0.0076022204 0.26851842 0.0012723219 871 178
0.096296526 -0.0076366048 0.26930904 0.001371491 780 157
0.097668245 -0.0076444335 0.26914302 0.001354538 762 153
0.09931881 -0.0076736067 0.26970819 0.0013646081 768 154
0.10253002 -0.0078210849 0.27440238 0.0013991683 724 145
0.10424701 -0.0078523131 0.274988 0.0014325893 696 138
0.10663377 -0.0079325931 0.2772654 0.0014778827 667 132
0.10743564 -0.007894448 0.27538189 0.0013775559 757 152
0.10923229 -0.0079294397 0.27603123 0.0014311807 715 143
0.11122286 -0.0079775043 0.27711135 0.0014316678 698 139
0.11422598 -0.0080962023 0.28061441 0.0014802092 672 133
0.11665481 -0.008171902 0.28259456 0.0015693825 609 119
0.12086143 -0.0083689569 0.28873256 0.0017647047 512 97
0.12318584 -0.0084326724 0.29023281 0.0019223052 438 80
0.12442393 -0.0084214266 0.2891337 0.0017240983 513 97
0.12495076 -0.0083628278 0.28640136 0.0016274521 563 108
0.12770523 -0.0084529705 0.28874856 0.0016346822 572 111
0.12896417 -0.0084432354 0.28766769 0.0016256304 583 113
0.12969476 -0.008399494 0.28542617 0.0015293047 621 122
0.13061382 -0.0083687594 0.28362948 0.0015222487 660 130
0.13194194 -0.0083646094 0.28273642 0.0014880871 656 129
0.13510686 -0.008475773 0.28573474 0.0016365628 567 109
0.13786927 -0.0085596498 0.28780308 0.0017525598 509 96
0.14005235 -0.0086062094 0.28861716 0.0018332995 482 90
0.14017709 -0.0085266214 0.2852203 0.0017140567 519 99
0.13754563 -0.0082826596 0.27637383 0.0016563257 564 109
0.13824971 -0.0082424041 0.27437416 0.0015874479 598 116
0.13643421 -0.0080542015 0.26749817 0.0015257833 632 124
0.13657294 -0.0079839053 0.26459277 0.0015311674 629 123
0.13784263 -0.0079804407 0.26394731 0.0015495489 621 122
0.13911185 -0.0079770163 0.26334777 0.0016118571 582 113
-0.12308754 -0.0052087065 0.20547773 0.0014736932 667 132
-0.1244054 -0.0053093638 0.20922358 0.0014053148 749 150
-0.12361769 -0.005321118 0.20950416 0.0014702734 696 138
-0.12230416 -0.0053102463 0.20893811 0.0014207271 704 140
-0.1215431 -0.0053233816 0.20936236 0.0013042579 811 164
-0.12096824 -0.0053449771 0.21016592 0.0013374633 817 165
-0.12125661 -0.0054054377 0.2125456 0.0014166131 764 154
-0.12077042 -0.0054321457 0.21364774 0.0014075362 739 148
-0.1193558 -0.0054171993 0.21316127 0.0014100953 741 148
-0.11892389 -0.0054469905 0.21448506 0.0014062863 744 149
-0.11798727 -0.005454001 0.21496193 0.0014235633 735 147
-0.11625196 -0.0054238793 0.21402198 0.0013456388 792 160
-0.11510707 -0.0054209959 0.21420115 0.0012919147 862 176
-0.11607973 -0.0055187321 0.21840559 0.0014021519 772 155
-0.11505679 -0.0055225561 0.21894142 0.0012727319 828 168
-0.11110998 -0.0053847539 0.21389063 0.0011334432 1036 215
-0.11114275 -0.0054390067 0.21649654 0.0011652964 1037 215
-0.11062115 -0.0054669338 0.21809222 0.0012191301 904 185
-0.10780408 -0.0053808438 0.21516064 0.0011097615 1076 224
-0.10829232 -0.0054596593 0.2188451 0.0011051706 1129 235
-0.10779896 -0.0054900874 0.22061945 0.001141895 1002 207
-0.10739375 -0.0055256761 0.2226228 0.0011236174 1046 217
-0.10651823 -0.0055375546 0.2236869 0.0011689062 965 199
-0.10667378 -0.0056038466 0.22696489 0.0011427614 1036 215
-0.10599513 -0.0056272582 0.22851993 0.0011906124 980 202
-0.1049333 -0.0056306105 0.22926426 0.001106534 1068 222
-0.11129903 -0.0060369098 0.24645789 0.0012724075 877 179
-0.11007885 -0.00603614 0.24707195 0.0013317178 783 158
-0.10867828 -0.0060253525 0.24726778 0.0012490675 863 176
-0.10578713 -0.0059307562 0.24400423 0.001042655 1148 240
-0.10590833 -0.0060048127 0.24766646 0.0011166771 1079 224
-0.10473874 -0.0060065407 0.24834113 0.0011521719 1014 210
-0.10275798 -0.0059612514 0.2470541 0.001159412 993 205
-0.10142235 -0.0059527652 0.24727261 0.0011962184 943 194
-0.099502422 -0.0059093758 0.2460213 0.0012541759 875 178
-0.096747033 -0.0058147311 0.24260774 0.0012184437 910 186
-0.093497366 -0.0056877178 0.23780808 0.0011555877 995 205
-0.092657678 -0.0057059885 0.23905735 0.0011555487 1013 209
-0.089646369 -0.0055893171 0.23462889 0.0011174922 1035 214
-0.090011857 -0.0056828968 0.23900829 0.0011499189 1049 217
-0.088905245 -0.0056847385 0.2395207 0.0011748234 971 200
-0.087969586 -0.0056977002 0.2404865 0.0011968379 966 199
-0.086979039 -0.0057074004 0.24130009 0.001244589 880 180
-0.085460462 -0.00568225 0.24062316 0.0011519741 959 197
-0.08379183 -0.0056463107 0.2394695 0.0011657741 989 204
-0.082004644 -0.0056012929 0.23791009 0.0011236663 1008 208
-0.081264511 -0.0056275367 0.23936112 0.0011287163 1085 226
-0.081192277 -0.005701418 0.24282922 0.001246964 925 190
-0.081156343 -0.0057799877 0.2464906 0.0013601788 779 157
-0.079959325 -0.0057769381 0.24666069 0.0013867836 739 148
-0.076373763 -0.0055987043 0.23932746 0.0013635965 761 153
-0.073056564 -0.0054351371 0.23259102 0.0013241791 796 161
-0.071980618 -0.0054358896 0.2328659 0.0013500314 770 155
-0.067980975 -0.00521249 0.22351636 0.0012617075 829 168
-0.066751614 -0.0051978556 0.2230971 0.0011936286 946 194
-0.06594792 -0.005216429 0.22409186 0.0012532915 886 181
-0.065810807 -0.0052891718 0.22740582 0.001346055 799 161
-0.064462267 -0.0052653388 0.22655837 0.0013445785 773 156
-0.062702298 -0.0052065509 0.22419362 0.0012880424 849 173
-0.062593877 -0.0052852314 0.2277386 0.0013245365 810 164
-0.061503988 -0.0052823182 0.22775999 0.0013836183 738 148
-0.060159862 -0.0052570868 0.22680868 0.001311582 821 166
-0.059072129 -0.0052537615 0.22679242 0.001305516 825 167
-0.058379792 -0.0052861166 0.22830813 0.0013097133 836 170
-0.058363177 -0.0053819781 0.23256065 0.0013251209 795 161
-0.059158791 -0.0055577429 0.2402627 0.0014356711 723 144
-0.058434378 -0.0055947001 0.2419596 0.0015299179 629 123
-0.056686342 -0.0055331816 0.23938906 0.0014239314 723 144
-0.056174342 -0.0055922666 0.24202836 0.0014412504 711 142
-0.055333775 -0.0056203762 0.24332069 0.0014348084 696 138
-0.054831434 -0.0056847157 0.24617535 0.0014452123 704 140
-0.053479616 -0.0056618447 0.24524681 0.0013690853 745 149
-0.053148668 -0.0057483995 0.24905194 0.0014743633 705 140
-0.051887989 -0.0057359985 0.24856399 0.0015278492 626 123
-0.050824717 -0.0057453527 0.24901244 0.001393911 735 147
-0.050168216 -0.0058021853 0.25151318 0.0014340233 716 143
-0.050740406 -0.0060071717 0.26043189 0.0015651825 620 121
-0.049508106 -0.0060032802 0.2602905 0.0015902508 603 117
-0.048248328 -0.0059957798 0.25998735 0.0015360332 622 122
-0.047404572 -0.0060409135 0.26196155 0.0015806369 606 118
-0.046748817 -0.0061129895 0.26509967 0.0015746864 621 122
-0.046301719 -0.0062169489 0.26961622 0.0016272629 588 114
-0.045305591 -0.0062508886 0.27109209 0.0016772327 565 109
-0.043871891 -0.00622467 0.26995498 0.0015364579 626 123
-0.042690627 -0.0062337806 0.2703464 0.001612498 601 117
-0.041488379 -0.0062402827 0.27062124 0.0015541821 607 118
-0.04044494 -0.0062718163 0.27197847 0.0015064133 653 129
-0.040808562 -0.0065305349 0.28318405 0.0016892187 573 111
-0.039975692 -0.0066085467 0.28655025 0.0017122815 537 103
-0.039170388 -0.0066966019 0.29034898 0.0017325291 516 98
-0.038205989 -0.0067627225 0.29319406 0.0017532303 524 100
-0.037423961 -0.0068671578 0.29769769 0.0017603023 510 97
-0.036214985 -0.006898216 0.29901814 0.0018543911 491 92
-0.034688503 -0.0068688598 0.29771832 0.0016489667 560 108
-0.033569831 -0.0069211652 0.29995665 0.0016740141 549 105
-0.032347929 -0.0069557671 0.30142647 0.0016482151 577 112
-0.031936619 -0.0071756016 0.31092143 0.0017761483 523 100
-0.031149343 -0.0073276572 0.31747741 0.0017738002 502 95
-0.029688207 -0.0073283729 0.3174755 0.0017422739 517 98
-0.027647782 -0.0071787513 0.31096148 0.0017023382 544 104
-0.02612105 -0.0071534328 0.30983284 0.0015266226 629 123
-0.024686113 -0.0071517783 0.30972967 0.0015409386 631 124
-0.023326494 -0.0071730814 0.31062132 0.0015038468 653 129
-0.021885522 -0.0071705193 0.31048021 0.0016243599 589 114
-0.020296717 -0.0071157687 0.30808067 0.0014562629 688 137
-0.019048896 -0.0071813199 0.31089073 0.0015999476 601 117
-0.017620701 -0.0071840133 0.31098065 0.0015945483 583 113
-0.016148342 -0.0071675787 0.31024414 0.0014691756 671 133
-0.014722388 -0.0071705491 0.31034923 0.0015786862 613 120
-0.01327169 -0.0071608089 0.30990598 0.001473399 666 132
-0.011780413 -0.0071241744 0.30830079 0.001433673 719 143
-0.010352945 -0.0071213623 0.30816138 0.001551033 646 127
-0.0089340126 -0.0071244603 0.30827987 0.0015006117 653 129
-0.007489902 -0.0071048494 0.30741781 0.0014924729 674 133
-0.006041151 -0.0070706354 0.30592626 0.0014188172 710 141
-0.0046160598 -0.0070516807 0.30509725 0.0014434019 708 141
-0.0032331368 -0.0071087875 0.30756146 0.0015526689 619 121
-0.0018156547 -0.0071198582 0.30803618 0.0015003611 648 128
-0.00039284935 -0.0071146465 0.30780879 0.0015974852 597 116
0.0010242283 -0.0070842244 0.30649313 0.0015165346 650 128
0.0024352637 -0.0070715561 0.30594796 0.0015993343 603 117
0.0038354821 -0.0070483121 0.30494758 0.0015368995 613 120
0.0052296044 -0.0070293592 0.3041352 0.0015245547 643 126
0.0066523869 -0.0070487992 0.30498612 0.0015726138 610 119
0.0080891261 -0.0070736501 0.30607358 0.0015217169 635 125
0.0094290692 -0.0070190541 0.30372548 0.0015012629 650 128
0.010810679 -0.0070055965 0.30315948 0.0015285022 637 125
0.01227024 -0.0070399479 0.30466437 0.001533647 630 124
0.013512798 -0.0069555338 0.30103129 0.0015365318 645 127
0.014809081 -0.0069119395 0.29916623 0.0015380613 636 125
0.016197063 -0.0069149309 0.29931909 0.0015833952 597 116
0.017138356 -0.0067417375 0.29184648 0.0014815432 664 131
0.018513221 -0.0067519108 0.29231253 0.0014503116 682 135
0.019912511 -0.0067690038 0.29307944 0.0015352501 646 127
0.021044869 -0.0066989553 0.29007423 0.0015298119 637 125
0.022173448 -0.006636153 0.28738302 0.0015006005 656 129
0.023351753 -0.0065944791 0.28560704 0.0014965098 656 129
0.024459118 -0.0065382933 0.28320268 0.0014282332 712 142
0.025673402 -0.0065149376 0.28222018 0.0014773575 662 131
0.026770802 -0.0064656064 0.28011224 0.0014761396 679 135
0.028072981 -0.006467998 0.28024483 0.0014423581 693 138
0.029266603 -0.0064462675 0.27933186 0.0014478783 692 137
0.03059205 -0.0064541814 0.27970284 0.0013556575 767 154
0.032277729 -0.0065343808 0.28320608 0.0015013688 688 137
0.033782214 -0.0065730903 0.28491053 0.0015296669 638 125
0.035064925 -0.006567365 0.28468788 0.0015816583 623 122
0.036449071 -0.0065803658 0.28527555 0.0017289629 539 103
0.038047597 -0.0066298181 0.28744185 0.0018037116 501 95
0.039252318 -0.0066096298 0.28658697 0.0017562003 495 93
0.040031198 -0.0065213847 0.28277856 0.0016402812 573 111
0.040957667 -0.0064619868 0.28021803 0.0014796655 660 130
0.042257372 -0.006463307 0.28028759 0.0015220304 657 130
0.042975497 -0.0063782325 0.27660736 0.0014891652 654 129
0.044052418 -0.0063497759 0.275379 0.0014895797 666 132
0.044817653 -0.0062792427 0.27232224 0.0014398578 685 136
0.045064438 -0.0061418903 0.26636377 0.001403994 764 154
0.046867386 -0.00621829 0.2696712 0.0014451859 690 137
0.047540717 -0.0061447383 0.26647142 0.0013693762 760 153
0.0485585 -0.0061182901 0.26530975 0.001430322 717 143
0.049595654 -0.0060955221 0.26430294 0.0014218026 698 139
0.050233196 -0.0060259076 0.26125997 0.0013118739 812 164
0.051639523 -0.0060496163 0.26225784 0.0013994299 751 151
0.052916348 -0.0060574156 0.26256016 0.0014209114 708 141
0.053468864 -0.0059838085 0.25932816 0.0013544195 774 156
0.054312102 -0.0059452439 0.25760937 0.0013352765 790 159
0.055379726 -0.0059323665 0.25699744 0.0012678357 840 171
0.056637887 -0.0059400122 0.25726768 0.0012821131 860 175
0.058012139 -0.0059592691 0.25803331 0.0013749764 763 153
0.058736898 -0.0059123738 0.25592735 0.0013020121 821 166
0.060074203 -0.0059277704 0.25651035 0.0012811692 864 176
0.062288821 -0.0060274675 0.26073122 0.0014001465 731 146
0.063150994 -0.0059949919 0.25922498 0.001425889 700 139
0.063821487 -0.0059458683 0.25699139 0.0013297648 813 165
0.065461233 -0.0059871902 0.25865778 0.0014483487 727 145
0.067023098 -0.0060200323 0.25994667 0.0014312235 693 138
0.067311883 -0.0059393854 0.25632617 0.0013042863 823 167
0.070037887 -0.0060728583 0.26193461 0.001377463 754 151
0.072715156 -0.0061976318 0.26715028 0.0014640701 689 137
0.074552238 -0.0062478152 0.2691344 0.001508754 669 132
0.076020099 -0.0062659141 0.26972258 0.0015214939 636 125
0.077174671 -0.0062580216 0.26917917 0.0015115258 640 126
0.077914879 -0.0062173163 0.26721326 0.0014630802 685 136
0.078676924 -0.0061796037 0.26536569 0.0013695873 755 152
0.079659134 -0.0061600818 0.2642881 0.0012931776 833 169
0.080704018 -0.0061459257 0.26342839 0.0013357297 783 158
0.083065897 -0.0062309862 0.26680407 0.0013959486 742 149
0.083473466 -0.0061691022 0.26387239 0.001296895 835 170
0.085941881 -0.0062591075 0.26742113 0.0013249003 811 164
0.086936429 -0.006240732 0.26632044 0.0012742396 862 176
0.08879675 -0.0062841447 0.26783946 0.0012975552 827 168
0.09110634 -0.0063576996 0.27062058 0.0013113696 827 168
0.092099175 -0.0063386089 0.26943845 0.0013504531 761 153
0.093236648 -0.0063298545 0.26868039 0.0012944198 839 170
0.094626389 -0.0063382303 0.26863226 0.0013144632 811 164
0.095935695 -0.0063410704 0.2683312 0.0013086466 833 169
0.097414508 -0.0063548931 0.26847604 0.0013028554 825 167
0.10052507 -0.0064734383 0.27301762 0.0013809224 759 152
0.10233719 -0.0065064202 0.27392104 0.0014122128 711 142
0.10399945 -0.0065291659 0.27437073 0.001418423 717 143
0.10583653 -0.0065621878 0.27522913 0.0014204883 704 140
0.10780396 -0.0066023846 0.27636379 0.0014105316 716 143
0.10974779 -0.0066401814 0.27737272 0.0014638912 673 133
0.11243474 -0.0067214998 0.28017074 0.0014679119 675 134
0.11411659 -0.0067415219 0.28038651 0.0015124429 638 125
0.11742371 -0.0068559712 0.28449935 0.0015860001 606 118
0.12082782 -0.0069733788 0.28869566 0.0017774566 505 95
0.12261753 -0.0069959983 0.2889379 0.0017709578 491 92
0.12329596 -0.0069554183 0.28655672 0.0015737701 593 115
0.12452763 -0.0069466056 0.28547585 0.0015504769 612 119
0.12654448 -0.0069813025 0.28616881 0.0015589948 607 118
0.12839872 -0.0070063723 0.2864514 0.0016179472 571 110
0.12967966 -0.0069999541 0.2854377 0.0015878509 582 113
0.13075998 -0.0069829584 0.28399119 0.0015114457 636 125
0.13201977 -0.0069758063 0.28294688 0.0014634574 684 136
