# .PCD v0.7 - Point Cloud Data file format
VERSION 0.7
FIELDS x y z noise intensity gray
SIZE 4 4 4 4 2 1
TYPE F F F F U U
COUNT 1 1 1 1 1 1
WIDTH 857
HEIGHT 1
VIEWPOINT 0 0 0 1 0 0 0
POINTS 857
DATA ascii
0.090443201 -0.063432835 0.25647327 0.0010427614 1194 255
0.091922432 -0.063595802 0.25660348 0.0010701388 1140 255
0.094131626 -0.064252689 0.25871 0.0010757702 1125 255
0.095480569 -0.064312771 0.25839868 0.0010817997 1115 255
0.096485674 -0.064142719 0.25715622 0.0011080718 1094 255
0.097311512 -0.063859403 0.25545758 0.0010875756 1133 255
0.098310895 -0.063695721 0.25423697 0.0010742486 1126 255
0.099376373 -0.063578419 0.25320131 0.0010790733 1132 255
0.10057368 -0.063547336 0.25250962 0.0011041904 1065 252
0.10177246 -0.063517928 0.2518267 0.001108158 1081 255
0.10298909 -0.063500226 0.25119457 0.0011066634 1070 253
0.10415494 -0.063452035 0.25044888 0.0011667317 998 234
0.10527325 -0.063376352 0.24960516 0.0011748534 970 227
0.10676299 -0.063523419 0.24965052 0.0012241408 918 213
0.10848987 -0.063806579 0.25024247 0.0012675867 869 200
0.11016358 -0.064052351 0.25070223 0.001287906 831 189
0.11219867 -0.064500354 0.25197014 0.0013640659 750 168
0.11308094 -0.064283021 0.25066248 0.0013775674 744 166
0.11314943 -0.063612968 0.24762392 0.0013968791 740 165
0.11390523 -0.063339718 0.24616729 0.0014164273 721 160
0.11249469 -0.061880719 0.24014597 0.0013942134 754 169
0.11210579 -0.061008815 0.2364513 0.0013611483 763 171
0.11238126 -0.060513087 0.23425834 0.0013407924 782 176
0.11284498 -0.060128003 0.23253614 0.0013367698 779 176
0.11336803 -0.05978217 0.23100831 0.001382562 752 168
0.11430809 -0.059661075 0.23039129 0.0013916289 735 164
0.11557353 -0.059710532 0.23047477 0.001421432 710 157
0.11741371 -0.06005295 0.23173079 0.0015011781 668 146
0.11897666 -0.060248211 0.23246118 0.0016446236 584 123
0.11919311 -0.059764456 0.23061426 0.0015989851 611 131
0.11994785 -0.059557408 0.2298767 0.0015627824 619 133
0.12055714 -0.059282832 0.22891912 0.0016628797 565 118
0.12098344 -0.058924362 0.22767667 0.0017474286 521 107
-0.21289951 -0.090010062 0.36259618 0.017864181 28 0
-0.22052312 -0.094028182 0.37787113 0.021856951 22 0
-0.21900934 -0.094185837 0.37763077 0.012041922 52 0
-0.22010146 -0.095476612 0.38196203 0.0072156847 75 0
-0.22026134 -0.096382074 0.38477698 0.010392722 49 0
-0.21425894 -0.094583206 0.376849 0.010279194 55 0
-0.21307522 -0.09489841 0.37740397 0.0086341947 64 0
-0.20734358 -0.093175568 0.36991352 0.0078195548 69 0
-0.20603527 -0.093427248 0.37032384 0.0092409747 62 0
-0.21460897 -0.098205537 0.38870156 0.0098538743 62 0
-0.2217167 -0.10239509 0.40475893 0.0083009042 68 0
nan nan nan 0 80 0
-0.1967964 -0.092596553 0.3652516 0.0051868064 127 1
-0.19577913 -0.092992924 0.36651787 0.004667067 133 3
-0.19365929 -0.092868157 0.36579278 0.0050677406 117 0
-0.18506593 -0.089606583 0.35278347 0.0046456214 138 4
-0.17734113 -0.086705878 0.341268 0.0042977766 153 8
-0.17429608 -0.086058527 0.33868778 0.0037281599 191 18
-0.17370644 -0.0866227 0.34093887 0.0034283875 210 23
-0.17197144 -0.086621337 0.34102774 0.003140281 225 27
-0.16755256 -0.085254319 0.33580071 0.0028708223 246 33
-0.16533732 -0.084991977 0.33498314 0.0029111051 255 35
-0.16389382 -0.085125029 0.33578384 0.0027492552 255 35
-0.16186795 -0.08495523 0.33544812 0.0033388296 214 24
-0.15224445 -0.080751948 0.31922221 0.002752891 267 39
-0.14933166 -0.080056146 0.31688973 0.0024988588 314 51
-0.14635585 -0.07931111 0.31440178 0.002272554 353 62
-0.14490013 -0.079382509 0.31519023 0.0022462825 364 65
-0.14133298 -0.078285962 0.31137431 0.0020858841 415 78
-0.13840491 -0.077522784 0.30890697 0.0019258446 472 93
-0.13642849 -0.077281401 0.30854297 0.0018330918 488 98
-0.13483252 -0.07725247 0.30905235 0.0018242769 480 96
-0.13281897 -0.076980837 0.30861157 0.0018060543 509 103
-0.13014005 -0.076312669 0.3065924 0.0016472981 589 125
-0.12825587 -0.076100208 0.30641162 0.0015339589 647 140
-0.12646411 -0.075938128 0.30644199 0.0014165315 722 160
-0.12418592 -0.07547649 0.30526581 0.0014183451 714 158
-0.12249559 -0.075365148 0.30550608 0.0014721609 693 153
-0.12025722 -0.074909657 0.30434784 0.0014824433 681 149
-0.11867359 -0.07485567 0.30481526 0.0014199895 735 164
-0.11732657 -0.074951462 0.30588964 0.0014582456 678 149
-0.1160078 -0.075068012 0.30704513 0.0015125789 645 140
-0.11464483 -0.075158633 0.30808911 0.0015528942 617 132
-0.11297315 -0.075046591 0.30829301 0.0014926851 673 147
-0.1106654 -0.07450331 0.30670902 0.0014478869 711 157
-0.10857242 -0.074091777 0.30564746 0.001382334 778 175
-0.107117 -0.074109942 0.30634248 0.0013151183 802 182
-0.10561874 -0.074098565 0.30690181 0.0013728163 760 170
-0.10404105 -0.074030355 0.30721095 0.0013469516 797 180
-0.10230123 -0.073843129 0.30700934 0.0013511552 779 176
-0.10011534 -0.073323734 0.30540612 0.0013985075 718 159
-0.097120523 -0.072187647 0.30120644 0.0015040726 650 141
-0.089316763 -0.067388944 0.28166625 0.0017625042 522 107
-0.084755577 -0.064927205 0.27182791 0.0017370258 553 115
-0.081487194 -0.063394628 0.26583821 0.0015153494 673 147
-0.078340143 -0.061909478 0.2600137 0.0013916855 749 168
-0.077108726 -0.06191482 0.26042616 0.0014530291 697 154
-0.075979084 -0.062003393 0.26117608 0.0016030266 578 122
-0.07539466 -0.062547199 0.26383418 0.0016175768 593 126
-0.073329046 -0.061859846 0.26128531 0.0015015251 689 151
-0.070051894 -0.060109317 0.25421956 0.0013988324 783 177
-0.06908793 -0.060317196 0.25541589 0.0012985714 855 196
-0.068724543 -0.061066106 0.25889608 0.0013614278 797 180
-0.067657471 -0.061205525 0.25978491 0.0013374458 785 177
-0.066543296 -0.061306704 0.26050088 0.0013414359 800 181
-0.065824002 -0.061782304 0.26279896 0.0013498223 776 175
-0.065017596 -0.062192772 0.26481271 0.001403973 739 165
-0.065019555 -0.063407578 0.27024695 0.0015109528 651 141
-0.067935117 -0.067568593 0.28824869 0.0017626188 521 107
-0.067363247 -0.068359479 0.29188144 0.0019171184 472 93
-0.06774243 -0.070168234 0.29985863 0.0020483162 417 79
-0.067107745 -0.070981137 0.30357841 0.0019205689 446 86
-0.06586834 -0.071175724 0.30464613 0.0018592962 485 97
-0.064122841 -0.070819944 0.30334708 0.0017911212 508 103
-0.062987939 -0.071137697 0.30492255 0.0018431436 479 95
-0.061145213 -0.070652254 0.3030448 0.001676314 574 121
-0.059542395 -0.070427626 0.30227414 0.0016876053 527 108
-0.061091766 -0.074010886 0.31784633 0.0018971353 455 89
-0.060254071 -0.074808426 0.32145685 0.0019634662 433 83
-0.05928421 -0.075478293 0.32451329 0.0020294886 409 77
-0.057762217 -0.075461872 0.32461149 0.0019556386 445 86
-0.056626197 -0.075962313 0.32692561 0.0020451199 391 72
-0.05903659 -0.081378914 0.3504014 0.0025122627 307 49
-0.056930568 -0.080700465 0.3476342 0.0022648731 353 62
-0.05526305 -0.080622174 0.3474426 0.0021910414 377 68
-0.053735361 -0.080749273 0.34812829 0.0020860962 396 73
-0.052093718 -0.080707729 0.34807953 0.0020397885 410 77
-0.050547902 -0.080816723 0.34867284 0.0020610502 422 80
-0.048838124 -0.080662109 0.34812176 0.0019567744 450 88
-0.046833396 -0.079993159 0.34534302 0.0018380631 484 97
-0.0449569 -0.079503663 0.34333119 0.0016814281 552 115
-0.043233141 -0.079258285 0.34236655 0.0016222602 590 125
-0.041670106 -0.079300091 0.34263647 0.0016484114 584 123
-0.040085465 -0.07930246 0.34273052 0.0016218734 581 123
-0.03861206 -0.079534151 0.34381053 0.0015888519 593 126
-0.037005395 -0.079499476 0.34373426 0.0016130987 582 123
-0.0353221 -0.079289652 0.34289569 0.0015941149 596 127
-0.03380568 -0.079452313 0.34366325 0.0016281173 592 126
-0.032303564 -0.079666309 0.34464875 0.0016014591 586 124
-0.0308304 -0.079977602 0.34605128 0.0016002131 592 126
-0.029272398 -0.080090828 0.3465932 0.0016315016 574 121
-0.027783044 -0.080415882 0.34804812 0.0016712336 553 115
-0.026305649 -0.080817603 0.34983161 0.0016805464 541 112
-0.024759635 -0.081047289 0.35086721 0.0017624896 506 103
-0.023273312 -0.081518255 0.35294425 0.0018032558 491 99
-0.021681096 -0.081661321 0.35359877 0.0018043936 491 99
-0.020142449 -0.08204589 0.35529599 0.0018120364 491 99
-0.018495429 -0.082018077 0.35520449 0.0017494283 518 106
-0.01680883 -0.08179228 0.35425267 0.0017874257 495 100
-0.014896604 -0.080301516 0.34781879 0.0017945988 502 101
-0.013212759 -0.079830371 0.34579825 0.0017777048 506 103
-0.011536969 -0.079285085 0.34345376 0.0017947897 506 103
-0.0098738205 -0.078666762 0.34079018 0.0017406245 529 109
-0.0082956627 -0.07861954 0.34059823 0.0017333911 522 107
-0.0067132311 -0.078500234 0.34009174 0.0017846989 518 106
-0.0051310644 -0.078312188 0.33928508 0.0017362457 519 106
-0.0035332763 -0.077615716 0.33627352 0.0018317056 491 99
-0.0019571881 -0.07667809 0.33221492 0.0017552315 517 105
-0.00042364525 -0.076653197 0.33210871 0.0018574895 471 93
0.0011083804 -0.076592274 0.33184427 0.0018969955 448 87
0.0026307756 -0.076322652 0.33067358 0.0019117671 462 91
0.0041244053 -0.075722881 0.32807043 0.0019295231 460 90
0.0056177308 -0.075441174 0.32684332 0.0018913043 470 93
0.0070571625 -0.074708208 0.32365915 0.0017937761 503 102
0.0085148579 -0.074390933 0.32227388 0.001785884 500 101
0.0099507328 -0.074005753 0.32059231 0.001820231 481 96
0.011375253 -0.073646791 0.31902236 0.0018034769 502 101
0.012684432 -0.072708979 0.3149429 0.0017702117 520 106
0.013967048 -0.071827449 0.31110534 0.0016986224 562 118
0.015364035 -0.071643658 0.3102878 0.0016287157 611 131
0.016802507 -0.071668155 0.31037 0.0015664547 625 134
0.018276807 -0.071829617 0.31104267 0.0015519565 625 134
0.019804073 -0.072160557 0.31244633 0.0015448924 608 130
0.021620778 -0.073429517 0.31790799 0.0016437679 537 111
0.024207626 -0.076986343 0.33326951 0.0019411609 418 79
0.026067432 -0.077943884 0.33737338 0.0021404196 398 74
0.027259242 -0.076908693 0.33284843 0.0018941583 484 97
0.028697833 -0.076643154 0.33165163 0.0017471391 521 107
0.030203199 -0.076573841 0.33130032 0.0016739812 551 115
0.031723678 -0.076547675 0.33113179 0.0016464124 557 116
0.033263385 -0.076568194 0.33116111 0.0016588363 565 118
0.034577992 -0.07609155 0.32903624 0.0017002104 533 110
0.034687877 -0.073115744 0.31610301 0.001798392 491 99
0.034323256 -0.069420956 0.30006298 0.001635303 595 126
0.035630476 -0.069263384 0.29931131 0.0016109505 595 126
0.036885511 -0.069019951 0.29818437 0.0017168985 531 109
0.03794504 -0.068441458 0.29560584 0.0016917244 545 113
0.039331786 -0.068472899 0.29565719 0.0017282177 530 109
0.040990371 -0.068959542 0.29766804 0.0018673494 486 97
0.042449079 -0.069089189 0.29813159 0.0018532845 474 94
0.043795794 -0.069034137 0.29779211 0.0018435428 489 98
0.044306368 -0.06770473 0.29195154 0.0016914698 555 116
0.044313017 -0.065706961 0.2832281 0.001577968 634 137
0.044929061 -0.064701833 0.2787821 0.0014511567 698 154
0.046088666 -0.064513847 0.27785268 0.0014360807 725 161
0.046577945 -0.063423328 0.27303198 0.001338887 815 185
0.04701826 -0.062325738 0.26817837 0.0012988985 834 190
0.048407134 -0.062509738 0.26883414 0.0012560753 885 204
0.049840204 -0.062740102 0.26968113 0.0012591063 873 201
0.051060323 -0.062697679 0.26934761 0.0012645078 885 204
0.052173935 -0.062529631 0.26846719 0.0012450983 885 204
0.053253263 -0.06232933 0.26744106 0.0012603311 889 205
0.05428347 -0.062082008 0.2662062 0.0012382182 927 215
0.055604804 -0.062171254 0.26640633 0.001218377 896 207
0.057026349 -0.062366188 0.26704964 0.0012080803 939 218
0.058693316 -0.062815443 0.26877069 0.0012613148 876 202
0.059373435 -0.062211841 0.26597792 0.0012565155 873 201
0.060565241 -0.06215816 0.26552874 0.001235025 929 216
0.061960623 -0.062311366 0.26595297 0.0012261075 919 213
0.063056879 -0.062163651 0.26508251 0.0012578105 872 200
0.063839421 -0.061718352 0.26293483 0.0012175904 948 221
0.064558029 -0.061229303 0.2605938 0.0011504092 1005 236
0.066492818 -0.061890472 0.26313627 0.001195612 951 222
0.067463048 -0.061646078 0.26181552 0.0011692591 992 233
0.06859155 -0.061552487 0.26112509 0.001176943 992 233
0.069518968 -0.061284937 0.25968665 0.0011228878 1077 255
0.070825353 -0.061354931 0.25966746 0.0011124752 1075 255
0.072072551 -0.061372157 0.25941217 0.0011631021 1023 241
0.073239304 -0.061321445 0.25885734 0.00110446 1107 255
0.074939989 -0.06171209 0.260151 0.001118424 1060 251
0.076393403 -0.06188976 0.26053062 0.0011327562 1022 241
0.077632524 -0.061890908 0.26015285 0.001165405 975 228
0.078876413 -0.06189578 0.25977746 0.0011153177 1054 249
0.08015573 -0.061927862 0.25950271 0.0011009432 1090 255
0.080800049 -0.061475836 0.25718883 0.0010450693 1206 255
0.082468845 -0.06180514 0.25813127 0.0010685641 1160 255
0.083885826 -0.061938792 0.25823995 0.001036855 1194 255
0.08533895 -0.062094852 0.25842676 0.0010573614 1166 255
0.08697404 -0.062376942 0.25912184 0.0010406409 1203 255
0.087856889 -0.062119175 0.25756142 0.001021907 1238 255
0.089137301 -0.062145777 0.25716969 0.0010370273 1204 255
0.090365849 -0.062135983 0.25661549 0.0010246588 1232 255
0.092352748 -0.062640831 0.25817144 0.001044111 1182 255
0.093554743 -0.062606901 0.25749251 0.0010588241 1151 255
0.095046058 -0.062764935 0.25759265 0.0010853597 1106 255
0.096105099 -0.062637098 0.25651091 0.0010858298 1095 255
0.097033888 -0.062428765 0.2550956 0.0011009804 1099 255
0.098164842 -0.062354133 0.25422361 0.0010941144 1099 255
0.099326 -0.062300313 0.25343388 0.0010945998 1107 255
0.10049408 -0.062252123 0.25266612 0.0010785633 1114 255
0.10180986 -0.062295489 0.25227028 0.0011092798 1082 255
0.10314003 -0.062346496 0.25190699 0.0011453808 1006 236
0.10426576 -0.062274195 0.25105083 0.0011569096 1001 235
0.10540283 -0.062210266 0.25023752 0.0011887056 962 225
0.10656834 -0.062164441 0.24950872 0.0011962259 930 216
0.10849015 -0.062555753 0.25054541 0.0012406934 886 204
0.11009747 -0.06275887 0.25084037 0.0012973534 833 190
0.11123633 -0.062693387 0.250081 0.0013343474 786 177
0.11260384 -0.062756792 0.24985956 0.0013517055 762 171
0.11308311 -0.062329218 0.24771273 0.0013934977 752 168
0.11386381 -0.062075309 0.24629074 0.0014034592 736 164
0.11197358 -0.060386457 0.23922016 0.0013489528 780 176
0.1120583 -0.059787355 0.23651469 0.0013254374 801 181
0.11204521 -0.059149269 0.23369798 0.0013223113 789 178
0.11286344 -0.058958776 0.23269178 0.0013304695 789 178
0.11365914 -0.058760583 0.2316964 0.0013841286 760 170
0.1144703 -0.058574371 0.23079045 0.0013898825 742 166
0.11632552 -0.058920749 0.2320246 0.0014121868 718 159
0.11746833 -0.058902949 0.23186666 0.0015069711 671 147
0.11858089 -0.058870491 0.2316941 0.001548328 615 132
0.1195768 -0.058781337 0.23134156 0.001548106 629 135
0.11996625 -0.058398686 0.22987649 0.0015749634 607 130
0.12035562 -0.058023389 0.22848159 0.0016043698 599 127
0.12149451 -0.058013141 0.22856468 0.0017231501 534 110
-0.24095139 -0.099832706 0.40995312 0.025061576 18 0
-0.22315833 -0.093248963 0.38200825 0.038624179 10 0
-0.22064435 -0.092991397 0.38008693 0.017165288 38 0
-0.22098862 -0.093944423 0.38315064 0.0083459392 68 0
-0.2169341 -0.093027815 0.37863359 0.0095755672 58 0
-0.21071261 -0.091157548 0.37030476 0.0099166241 52 0
-0.21008521 -0.091695607 0.37181836 0.010968362 53 0
-0.20919766 -0.092128769 0.37295061 0.0099201826 57 0
-0.20834012 -0.092583127 0.37421629 0.0088345045 67 0
-0.21268354 -0.095378168 0.38498032 0.0075259153 81 0
nan nan nan 0 89 0
nan nan nan 0 105 0
-0.19459137 -0.089728065 0.36101481 0.0052630506 120 0
-0.19236462 -0.089543834 0.36000943 0.0048405044 135 3
-0.18068595 -0.084914118 0.34120575 0.0046868101 150 7
-0.17691164 -0.083945394 0.33718634 0.003811171 195 19
-0.17514223 -0.083918363 0.33701316 0.0033148306 214 24
-0.17428872 -0.084333979 0.33868057 0.0032422573 220 26
-0.17142484 -0.083775416 0.33649898 0.0030526554 236 30
-0.16924302 -0.083542272 0.33568683 0.0028467502 267 39
-0.16678621 -0.08316727 0.33436605 0.0026534013 295 46
-0.16516456 -0.083205283 0.33476636 0.0025702452 299 47
-0.16371207 -0.083330192 0.33557668 0.002572652 303 48
-0.16185315 -0.083248675 0.33561382 0.0026433284 283 43
-0.15876219 -0.082525015 0.33311361 0.0028513493 267 39
-0.1485076 -0.078022242 0.31538171 0.0025937078 311 50
-0.14619847 -0.077641472 0.31432989 0.0024044556 324 54
-0.14262542 -0.076573759 0.31052965 0.0022301432 383 70
-0.14005709 -0.076027796 0.30887192 0.0018512846 481 96
-0.13764237 -0.075553924 0.30753317 0.0018384688 472 93
-0.1357252 -0.075345524 0.30729917 0.0019037199 459 90
-0.13414854 -0.075323544 0.30784902 0.0018165945 492 99
-0.13143235 -0.074653774 0.30576664 0.0016991774 544 113
-0.12986638 -0.074629307 0.30633825 0.0016121356 580 122
-0.12782265 -0.074326456 0.30577758 0.0015340329 623 134
-0.12541023 -0.073799349 0.30429634 0.0014412005 700 154
-0.12390002 -0.073796831 0.30497935 0.0014369804 704 155
-0.12191527 -0.073508106 0.30448005 0.001478562 680 149
-0.12023474 -0.073397897 0.30471659 0.0014725098 687 151
-0.1185578 -0.073287144 0.30494645 0.0014573403 679 149
-0.1169125 -0.073193364 0.30524036 0.0014687412 672 147
-0.11512191 -0.073005013 0.30513063 0.0014657243 695 153
-0.11339835 -0.072854802 0.30516872 0.0014646248 675 148
-0.1123891 -0.073165596 0.30712923 0.0015200353 632 136
-0.11054916 -0.072936706 0.30681369 0.0014482893 696 153
-0.10828393 -0.072417162 0.3052564 0.0013291951 819 186
-0.10679971 -0.072412767 0.30585271 0.0013864157 734 164
-0.10534205 -0.072426513 0.30651161 0.0013621817 766 172
-0.10382771 -0.072401136 0.30699006 0.0014373019 722 160
-0.10118402 -0.071576126 0.30405605 0.0013152129 801 181
-0.098853528 -0.07095176 0.30194765 0.0013638844 756 169
-0.096845053 -0.070543386 0.30073506 0.0015566011 599 127
-0.088986032 -0.065796763 0.28097498 0.0017164639 537 111
-0.083797477 -0.062909514 0.26908594 0.0016582638 589 125
-0.079819359 -0.060855284 0.26071176 0.0014709395 674 147
-0.078586832 -0.060862478 0.2611416 0.0015335133 610 130
-0.077228218 -0.060770683 0.26113275 0.0016364078 561 117
-0.075409375 -0.060307838 0.25951275 0.0015399249 690 152
-0.071826093 -0.058395125 0.25162652 0.001273517 900 208
-0.070734911 -0.058478154 0.25231677 0.001211235 958 223
-0.069561124 -0.05849456 0.25270784 0.0012119464 932 217
-0.069547638 -0.059504297 0.25738358 0.001238917 887 204
-0.06914822 -0.060213845 0.26075771 0.0012840868 834 190
-0.067950137 -0.060241006 0.2611686 0.0013339217 773 174
-0.067772016 -0.061190084 0.26556912 0.0013747144 739 165
-0.066637084 -0.061294682 0.26629788 0.001418549 703 155
-0.065634526 -0.061527375 0.26757333 0.0014156169 741 165
-0.06488739 -0.062013246 0.26994169 0.001347675 779 176
-0.063811868 -0.062198367 0.27099276 0.0014083205 731 163
-0.063564271 -0.063214362 0.27565777 0.0015633109 613 131
-0.064642102 -0.065617897 0.2863754 0.0017353257 528 108
-0.067207672 -0.069665238 0.30427915 0.0020031072 441 85
-0.067215905 -0.071179375 0.31112662 0.0020750167 401 74
-0.064127132 -0.069408335 0.30360305 0.0018438853 483 96
-0.062605388 -0.069291681 0.30330002 0.0017790339 509 103
-0.061162338 -0.069258749 0.30335316 0.0017743409 525 108
-0.059710141 -0.069213666 0.30334333 0.0016799241 547 113
-0.059079591 -0.070141882 0.30759227 0.001728593 522 107
-0.05896375 -0.071742445 0.314787 0.001893269 457 89
-0.059558589 -0.074311242 0.32623109 0.002105623 411 77
-0.05815953 -0.074461468 0.32705495 0.0020607137 409 77
-0.056935828 -0.074850284 0.32891941 0.0021229461 393 72
-0.056444291 -0.076249607 0.33521971 0.0022252756 367 65
-0.056821771 -0.078935489 0.3471759 0.002361754 338 58
-0.055146765 -0.078843646 0.34691176 0.0022199389 374 67
-0.053518567 -0.078815199 0.34691861 0.002162911 386 70
-0.052192569 -0.079243824 0.34893066 0.002088466 392 72
-0.050592534 -0.07927049 0.34916624 0.0020747685 396 73
-0.048960432 -0.079247013 0.34917414 0.0020346644 412 77
-0.047222868 -0.079045393 0.34839025 0.0018939154 470 93
-0.045019541 -0.078022324 0.34397799 0.0018059504 506 103
-0.043310501 -0.077812277 0.34314275 0.0017373484 530 109
-0.041708302 -0.077785492 0.3431097 0.0016796591 547 113
-0.040167481 -0.077875584 0.34358686 0.0016462869 568 119
-0.038574703 -0.077868231 0.34362903 0.001625891 589 125
-0.036993247 -0.077884063 0.34376869 0.0016749351 563 118
-0.035402123 -0.07788007 0.34381604 0.0016465955 580 122
-0.033830859 -0.077921443 0.34405932 0.0016409513 593 126
-0.032371853 -0.078238182 0.34551448 0.0016610717 585 124
-0.03073151 -0.078126818 0.3450751 0.0015791841 604 129
-0.029178973 -0.078238688 0.34561786 0.0016847304 560 117
-0.027746093 -0.078702919 0.3477138 0.0016909586 545 113
-0.026232196 -0.07898026 0.34898102 0.0017150828 530 109
-0.024724141 -0.079312652 0.35048839 0.0017835202 495 100
-0.023168335 -0.079527713 0.35147429 0.0017959244 500 101
-0.021531081 -0.079474531 0.3512716 0.0018200937 496 100
-0.020003764 -0.079851538 0.35296759 0.0018226702 483 96
-0.018372236 -0.079842515 0.35295448 0.0017772556 507 103
-0.016732924 -0.079794616 0.35276684 0.0018241248 481 96
-0.01491545 -0.07879521 0.34836966 0.0017729811 511 104
-0.013095176 -0.077537715 0.34282854 0.0017153205 548 114
-0.011367292 -0.076556809 0.33850744 0.0016742386 553 115
-0.0098593561 -0.076980658 0.34039539 0.0017358192 516 105
-0.0082986206 -0.077074774 0.3408232 0.0017447937 527 108
-0.0067124539 -0.0769215 0.34015492 0.0017229372 523 107
-0.0051086601 -0.076410994 0.33790487 0.0018356181 493 99
-0.0035511113 -0.076447509 0.33807182 0.0018813512 459 90
-0.0019719754 -0.07571245 0.33482456 0.001857012 486 97
-0.00042248261 -0.074914128 0.33129564 0.0018617655 480 96
0.001106474 -0.074931487 0.33137196 0.0019616715 437 84
0.0026312978 -0.074811205 0.3308377 0.002000201 437 84
0.0041136662 -0.074015364 0.32731408 0.001916469 468 92
0.0055919718 -0.073593512 0.32544243 0.0018297323 481 96
0.0070667365 -0.073313542 0.32419634 0.0018241265 474 94
0.008489335 -0.072684735 0.32140589 0.0018341803 486 97
0.0098201884 -0.071574323 0.316484 0.0016695148 576 121
0.011102897 -0.070445962 0.31148112 0.0016002363 606 129
0.012458845 -0.069987707 0.30943942 0.0015946459 639 138
0.013922611 -0.070167102 0.31021491 0.0015288643 648 141
0.015363214 -0.070207179 0.31037214 0.0015530281 625 134
0.016817892 -0.07029926 0.31075701 0.0015955393 570 120
0.018635672 -0.071775354 0.31725681 0.0017892555 467 92
0.021388646 -0.076375768 0.3375617 0.0019377328 410 77
0.022813303 -0.075930193 0.33556014 0.0019300295 450 88
0.024279116 -0.075669587 0.3343733 0.0018554569 485 97
0.025801456 -0.07560578 0.3340531 0.0017705911 529 109
0.027235111 -0.075303957 0.33267811 0.00165997 562 118
0.028676594 -0.075054869 0.33153298 0.0016843089 551 115
0.030129572 -0.074859597 0.33062223 0.0016712154 554 115
0.03171216 -0.074989639 0.33114457 0.0016273962 589 125
0.033183835 -0.07485754 0.33050525 0.001641828 575 121
0.03433289 -0.074041292 0.32684198 0.0016770387 546 113
0.035077527 -0.072458468 0.31979239 0.0018235348 505 102
0.034600098 -0.06858141 0.30261791 0.0017099321 545 113
0.035971619 -0.068528153 0.30231524 0.0017170449 528 108
0.037171509 -0.068164162 0.30063751 0.0017528379 516 105
0.038163934 -0.067459702 0.29745451 0.00171038 541 112
0.039203323 -0.066884413 0.29483762 0.0016702348 550 114
0.040523577 -0.066810891 0.2944282 0.0017124382 537 111
0.041607909 -0.06636586 0.29237691 0.0016846677 574 121
0.042794917 -0.066107489 0.29114327 0.0016812799 556 116
0.044032078 -0.065940015 0.29030472 0.0016615806 588 124
0.043773033 -0.063608289 0.2799359 0.00148367 675 148
0.04504535 -0.063572049 0.27966711 0.0014323434 709 157
0.046085168 -0.063218899 0.27799854 0.0013780727 768 173
0.046888623 -0.062569581 0.27502295 0.001399425 738 165
0.047819838 -0.062120654 0.2729235 0.0013325205 792 179
0.048781931 -0.061733983 0.27109233 0.0013502009 782 176
0.050040279 -0.061732251 0.27094522 0.0013720165 746 167
0.051058955 -0.061442208 0.26952589 0.0013220562 795 180
0.052371979 -0.061511774 0.26967683 0.0012881754 852 195
0.053520028 -0.061388854 0.268976 0.0012628025 867 199
0.054660175 -0.061262704 0.26825348 0.0012682818 845 193
0.056172233 -0.061549708 0.26933104 0.001287907 850 195
0.056983847 -0.061073452 0.2670604 0.0012373767 899 208
0.058117721 -0.060955565 0.26634958 0.0012244879 922 214
0.059177421 -0.060766459 0.26531923 0.001254256 909 210
0.060189769 -0.060537487 0.26410663 0.0011751563 1003 236
0.061700121 -0.060808539 0.26506543 0.0011613662 1026 242
0.062873706 -0.060743544 0.26454836 0.0012131383 937 218
0.063975394 -0.060612943 0.26373592 0.0011679329 984 230
0.065464303 -0.060847204 0.26449978 0.0012031295 932 217
0.066617571 -0.060766581 0.26388311 0.001166747 1002 235
0.067261703 -0.060232975 0.26129076 0.001141831 1019 240
0.068744436 -0.060456019 0.26197058 0.0011594911 983 230
0.069998316 -0.060473483 0.26174659 0.0011545322 1004 236
0.070957586 -0.06024022 0.26042637 0.0011512279 1019 240
0.071945488 -0.060038809 0.25923383 0.0011076748 1091 255
0.073202409 -0.060064867 0.25901186 0.0010716782 1108 255
0.074572213 -0.060181174 0.25916547 0.0011276853 1066 252
0.076337218 -0.060607489 0.260638 0.001129645 1022 241
0.077637449 -0.060657073 0.26047429 0.0011692533 1007 237
0.078771673 -0.060577445 0.25974265 0.0011415438 1020 240
0.080019943 -0.060586628 0.25937879 0.0011188434 1065 252
0.081082225 -0.060456846 0.25840732 0.0010333167 1192 255
0.082079902 -0.060283508 0.25723833 0.0010453025 1175 255
0.083752558 -0.060603708 0.2581608 0.0010543506 1180 255
0.085144907 -0.060714718 0.25817555 0.0010195047 1240 255
0.086434558 -0.060750354 0.25785556 0.0010066708 1258 255
0.087797455 -0.060835734 0.25773269 0.0010164289 1259 255
0.089046106 -0.060840681 0.2572557 0.0010173125 1280 255
0.090603769 -0.061053712 0.25764459 0.001002575 1267 255
0.091214545 -0.060631566 0.25534323 0.0010211691 1231 255
0.092860706 -0.060899734 0.25593951 0.0010363813 1186 255
0.094291084 -0.061021175 0.25590569 0.0010622327 1159 255
0.095482506 -0.060986824 0.2552087 0.001069036 1146 255
0.097023278 -0.061173629 0.25542796 0.0010698055 1133 255
0.098142795 -0.061093457 0.25452501 0.0010918583 1110 255
0.099234737 -0.060998343 0.25355658 0.001108849 1097 255
0.10044214 -0.060975682 0.25288743 0.0011113915 1083 255
0.10173339 -0.06100386 0.25242808 0.0010821201 1120 255
0.10312597 -0.061091371 0.2522144 0.0011286509 1050 248
0.10430843 -0.061053813 0.25148764 0.0011479548 1006 236
0.10499398 -0.060729712 0.24959029 0.0011737091 974 228
0.10693409 -0.061130363 0.25068015 0.0012117894 922 214
0.10807634 -0.061070934 0.24989255 0.0012598824 885 204
0.10959322 -0.061222132 0.24998145 0.001275202 847 194
0.11122386 -0.061432756 0.25032875 0.0013205539 799 181
0.11277503 -0.061595295 0.25049925 0.0013838212 742 166
0.11347719 -0.061295629 0.24881656 0.001389767 740 165
0.11131802 -0.059473794 0.24099883 0.0013398855 795 180
0.11174897 -0.059060145 0.23893385 0.0013056779 810 184
0.11164179 -0.05837395 0.23580651 0.0013013392 824 188
0.11245293 -0.058177333 0.23469758 0.0013106021 806 183
0.11323509 -0.057969991 0.23358509 0.0013280334 795 180
0.11475302 -0.058139715 0.23403169 0.0013817562 742 166
0.11566882 -0.058004018 0.23328969 0.0014103684 717 159
0.11601636 -0.057588995 0.23146814 0.0014237532 716 159
0.11765129 -0.05781493 0.23226622 0.0014774482 673 147
0.11898173 -0.057888236 0.23249404 0.0016180679 606 129
0.11997361 -0.057796992 0.23210466 0.0015763276 620 133
0.12111107 -0.057776984 0.23204491 0.0015858918 604 129
0.12153385 -0.057419702 0.23067328 0.0015945236 580 122
0.123256 -0.057677276 0.23181404 0.0016776631 563 118
nan nan nan 0 24 0
-0.22886397 -0.093681626 0.39140108 0.053623345 8 0
-0.21960884 -0.090666294 0.37795544 0.020199945 30 0
-0.22184721 -0.092384927 0.38430077 0.010080519 61 0
-0.21308427 -0.089512236 0.37160289 0.010409722 50 0
-0.21249574 -0.090053052 0.37314329 0.012472784 43 0
-0.21007946 -0.089821994 0.37153292 0.011368863 48 0
-0.20876238 -0.090061001 0.37191916 0.010533833 54 0
-0.20741312 -0.090290345 0.37231705 0.010915647 54 0
nan nan nan 0 63 0
nan nan nan 0 89 0
-0.18644641 -0.083432935 0.34284198 0.0052437801 133 3
-0.1812086 -0.081852056 0.33606645 0.0041538468 165 11
-0.17873731 -0.081502661 0.3344126 0.0034124479 201 21
-0.17742011 -0.081677884 0.33497223 0.0033373868 208 23
-0.17598097 -0.081799805 0.33537456 0.0032234015 212 24
-0.17439005 -0.081852868 0.33555716 0.0028747423 241 32
-0.17290461 -0.081956983 0.3360126 0.0030689805 220 26
-0.17073381 -0.08173506 0.33519477 0.0028277007 267 39
-0.16868874 -0.081569485 0.33467093 0.0028087976 249 34
-0.1675221 -0.081829615 0.3359566 0.0024861749 300 47
-0.16559631 -0.081720456 0.33578804 0.0027084253 264 38
-0.16396308 -0.081754915 0.33626914 0.0023990078 320 53
-0.16228168 -0.081765823 0.33671105 0.0024865046 304 48
-0.15961687 -0.081276216 0.33514395 0.0022881413 332 56
-0.1565138 -0.080550551 0.33264762 0.0028370887 257 36
-0.14653735 -0.076233409 0.31533325 0.0026037178 304 48
-0.14133161 -0.07433074 0.3080042 0.0020759359 404 75
-0.13939045 -0.074121885 0.30771437 0.0019040565 452 88
-0.13671538 -0.073513716 0.30579209 0.0019195999 452 88
-0.13514295 -0.07349138 0.30632907 0.0018866955 465 92
-0.13178104 -0.07248427 0.30277559 0.0017980218 497 100
-0.13129479 -0.073053852 0.30582348 0.001740839 522 107
-0.12898037 -0.072607651 0.30463526 0.0016369203 576 121
-0.12687284 -0.07226871 0.3039012 0.0015527932 625 134
-0.12528378 -0.072220504 0.30439386 0.0015411532 641 139
-0.12366052 -0.072151192 0.30480102 0.0015497917 612 131
-0.12192122 -0.072011605 0.30491078 0.0015403855 622 134
-0.1202201 -0.071891382 0.30509883 0.0015416741 639 138
-0.11840079 -0.071696572 0.30496356 0.0014900091 661 144
-0.11598486 -0.071130872 0.30323753 0.001461537 715 158
-0.1141789 -0.07092946 0.30304939 0.001423005 698 154
-0.11261257 -0.070873573 0.30347118 0.0014197786 724 161
-0.11118586 -0.070905246 0.30425692 0.0014759414 676 148
-0.10960981 -0.070841253 0.30461961 0.0014629347 682 150
-0.10845776 -0.071053289 0.3061575 0.0014275747 712 158
-0.10672407 -0.070884869 0.30604246 0.0013878591 750 168
-0.1046952 -0.070512921 0.30502939 0.0013967542 732 163
-0.10274088 -0.07018131 0.30416989 0.0014151619 741 165
-0.10102736 -0.070006989 0.30397248 0.0013798156 756 169
-0.098802187 -0.06946782 0.30216953 0.00139923 734 164
nan nan nan 0 608 130
-0.084668614 -0.061326928 0.26766661 0.0015730495 628 135
-0.080957033 -0.059536889 0.26027402 0.0015706953 625 134
-0.0819107 -0.061175395 0.26785472 0.0017824307 509 103
-0.078691669 -0.059700049 0.26178893 0.0016565479 602 128
-0.074623547 -0.057522815 0.25260812 0.0013589382 840 192
-0.073029675 -0.057212882 0.25159875 0.0012147705 967 226
-0.07188496 -0.057250384 0.25210288 0.0011992594 945 220
-0.070859395 -0.057385664 0.25302601 0.0012225562 892 206
-0.070451714 -0.05803455 0.25620577 0.0012775474 817 186
-0.072531201 -0.060790665 0.26869419 0.001462784 631 136
nan nan nan 0 514 105
nan nan nan 0 583 123
nan nan nan 0 450 88
nan nan nan 0 387 71
nan nan nan 0 539 111
-0.066518739 -0.062275074 0.27696791 0.0014962406 670 146
-0.063739806 -0.060860336 0.27091509 0.0013819896 753 169
-0.062631734 -0.06101593 0.27183703 0.0014118261 738 165
-0.062861472 -0.062508263 0.27871004 0.0015277548 651 141
-0.063521668 -0.064500824 0.28781542 0.0016760878 556 116
-0.066751219 -0.069244847 0.30921048 0.0020049992 420 80
-0.066032648 -0.070012353 0.31285581 0.002161127 395 73
-0.06267786 -0.067956291 0.30386975 0.0019312077 452 88
-0.061148826 -0.067830466 0.30349863 0.0018026917 504 102
-0.059902232 -0.068019405 0.30452657 0.001765653 524 107
-0.058551878 -0.068096831 0.30504689 0.0016815598 534 110
-0.058275457 -0.069458097 0.311313 0.0018700896 474 94
-0.059142783 -0.072286628 0.32415658 0.0019945153 431 82
-0.058242008 -0.073045447 0.32771838 0.0020098705 420 80
-0.056632958 -0.072932839 0.32736349 0.002011294 419 79
-0.055399135 -0.073310584 0.329202 0.0020472661 415 78
-0.055630658 -0.07570383 0.34008837 0.0021966968 362 64
-0.054701678 -0.0766114 0.3442989 0.0022000535 379 69
-0.05306036 -0.076545864 0.3441301 0.0021249794 390 71
-0.051826745 -0.077082679 0.34666276 0.0022123102 376 68
-0.050712772 -0.077837437 0.35017055 0.0021767742 367 65
-0.049170315 -0.077962667 0.35084078 0.002138352 388 71
-0.047346525 -0.077635147 0.34946692 0.0020795041 412 77
-0.045352332 -0.076995172 0.34667915 0.0018967316 455 89
-0.043623652 -0.076775566 0.34577733 0.0018632038 472 93
-0.041924533 -0.076593235 0.34503737 0.0018090773 501 101
-0.040246829 -0.076437153 0.34441009 0.0017333087 539 111
-0.038620699 -0.076370202 0.34417924 0.0016542978 560 117
-0.036967117 -0.076240867 0.3436622 0.0016763911 570 120
-0.035392512 -0.076270126 0.34385544 0.0016710905 575 121
-0.033907719 -0.076504789 0.34497064 0.0016100272 592 126
-0.032370612 -0.076638728 0.34562775 0.0016586978 557 116
-0.030769331 -0.076626748 0.34562302 0.0016187375 576 121
-0.029100891 -0.076437041 0.34481281 0.0016293833 578 122
-0.027536547 -0.076514646 0.34520486 0.0016419196 570 120
-0.026145825 -0.077113852 0.34794718 0.001704866 542 112
-0.024614638 -0.077350087 0.34904897 0.001750071 521 107
-0.023089927 -0.077641219 0.35039568 0.0017874523 505 102
-0.021495592 -0.077724457 0.35080132 0.0017683597 505 102
-0.019871756 -0.077705882 0.35074478 0.0018461953 489 98
-0.01828496 -0.077841684 0.35138249 0.0017967009 500 101
-0.016445039 -0.076821499 0.34679908 0.0017837414 521 107
-0.014715509 -0.076152623 0.34379885 0.0017311136 528 108
-0.01291251 -0.074895963 0.33814237 0.00166184 570 120
-0.01136682 -0.074991465 0.33858818 0.0016199431 584 123
-0.0098605854 -0.075419188 0.34053206 0.0017114868 532 109
-0.0082771573 -0.075306714 0.34003487 0.0017991704 495 100
-0.0066307513 -0.074434668 0.33610594 0.001748236 528 108
-0.0051089553 -0.074856073 0.33801559 0.0017665393 505 102
-0.0035378523 -0.074607916 0.3369 0.0019100583 479 95
-0.0019588775 -0.073674828 0.33268967 0.0018430166 496 100
-0.00042099148 -0.073126413 0.33021459 0.0019068562 463 91
0.0011020564 -0.073109373 0.33013722 0.0018599714 478 95
0.0025978351 -0.072352633 0.32671791 0.00191168 461 90
0.0040945471 -0.072168022 0.32588047 0.0019021408 456 89
0.0055964752 -0.072149813 0.32579264 0.0019451763 438 84
0.0070684119 -0.07183452 0.32436165 0.0019112815 468 92
0.0083604055 -0.070120193 0.3166118 0.0017661643 532 109
0.0096406974 -0.068832256 0.31078583 0.0015286653 649 141
0.010990716 -0.068311185 0.30842084 0.0015070968 679 149
0.012430833 -0.068405397 0.30883193 0.001490153 670 146
0.01391494 -0.068697393 0.31013399 0.0015050386 657 143
0.015396279 -0.068922549 0.31113201 0.0016146402 561 117
0.017817207 -0.072956644 0.329321 0.0018980921 423 80
0.019998306 -0.075451799 0.34055892 0.0021581256 371 66
0.021397594 -0.074848548 0.33780867 0.0019961649 457 89
0.02282688 -0.074425027 0.33586723 0.0018200907 507 103
0.024236944 -0.073996723 0.33390167 0.0017188928 541 112
0.025709664 -0.073799476 0.33297607 0.0016428934 566 119
0.027228149 -0.07374844 0.33270714 0.0016249382 582 123
0.028538762 -0.073169909 0.33005551 0.0016445202 588 124
0.029988291 -0.072988138 0.32919061 0.0016153649 615 132
0.03141614 -0.072773695 0.32817501 0.0015615734 614 131
0.033217181 -0.073403671 0.33096319 0.0016207441 570 120
0.034675524 -0.073254235 0.3302328 0.001685905 545 113
0.033339601 -0.06746316 0.30407038 0.0016610872 583 123
0.034468632 -0.066926673 0.30159265 0.0016635091 562 118
0.035819676 -0.066846214 0.30116624 0.0016879826 541 112
0.037123945 -0.066687763 0.30038413 0.0017190876 535 110
0.037992693 -0.0657866 0.29625314 0.0016622603 558 116
0.038790528 -0.06482967 0.29186821 0.0016007505 607 130
0.039952047 -0.064524494 0.29041409 0.0016469356 579 122
0.040987615 -0.064042397 0.28815937 0.0016185322 575 121
0.042308424 -0.064022332 0.28797889 0.0016809998 570 120
0.043308172 -0.063532479 0.28568041 0.0015839676 626 135
0.043806743 -0.062358279 0.28030136 0.0015103624 648 141
0.044519875 -0.061548334 0.27655688 0.0013780171 766 172
0.045217656 -0.060763102 0.27292004 0.0013266898 797 180
0.046790544 -0.061164565 0.27460766 0.0014039376 734 164
0.047508921 -0.060457349 0.27131158 0.0013112786 818 186
0.048591655 -0.060238354 0.27020159 0.0013179518 805 183
0.049882185 -0.060281493 0.27026066 0.0013240349 841 192
0.050970323 -0.060083937 0.2692337 0.0012718411 864 198
0.052181441 -0.060037341 0.26887608 0.0012801536 858 197
0.053559154 -0.060180116 0.26935843 0.0012724869 855 196
0.054920919 -0.060298853 0.26972431 0.0012905652 855 196
0.05644485 -0.060586341 0.27083534 0.0013069919 836 191
0.056986567 -0.059830032 0.26727307 0.0012710207 880 203
0.058113247 -0.059707109 0.26653394 0.0012156874 946 220
0.059053566 -0.05940187 0.26497298 0.0012274719 934 217
0.060108028 -0.059221622 0.26396179 0.0011662248 989 232
0.061201975 -0.059086751 0.26314411 0.0011872535 938 218
0.062424708 -0.05907907 0.26288337 0.0011924694 967 226
0.063850179 -0.059259858 0.26345015 0.0011755821 970 227
0.065387703 -0.059535801 0.26442742 0.001249049 897 207
0.066632688 -0.059540085 0.26418588 0.0011966883 938 218
0.067638487 -0.059334382 0.26300222 0.001182053 956 223
0.068411291 -0.058935344 0.26095289 0.0011666908 999 234
0.070187815 -0.059399828 0.26271483 0.0011871528 960 224
0.07120122 -0.059213571 0.26158518 0.0011688574 1014 238
0.071884058 -0.058763441 0.25928086 0.0011207878 1036 244
0.07287775 -0.058578227 0.25813636 0.0010763446 1136 255
0.074754469 -0.059097201 0.26008037 0.0011120015 1060 251
0.0756547 -0.058839902 0.25859356 0.0011426371 1019 240
0.077159762 -0.0590537 0.25916427 0.0011208423 1055 249
0.078634918 -0.059238277 0.25959083 0.0011150098 1069 253
0.079953432 -0.059300963 0.25946814 0.001123432 1071 254
0.081206858 -0.059314191 0.25911492 0.0010810347 1112 255
0.082292594 -0.059206389 0.25821999 0.0011011763 1075 255
0.083613984 -0.059268806 0.25805411 0.0010633363 1166 255
0.084955104 -0.059343182 0.25792569 0.0010683513 1158 255
0.086362086 -0.059460789 0.25797018 0.0010455319 1198 255
0.087596744 -0.059458084 0.25747851 0.001021583 1236 255
0.089036383 -0.059592653 0.25756729 0.001025938 1239 255
0.090209328 -0.05954748 0.25686583 0.0010254479 1246 255
0.091703124 -0.059712451 0.25705767 0.0010295353 1204 255
0.092322536 -0.059311267 0.25480297 0.0010579352 1155 255
0.094286442 -0.059773032 0.25624427 0.001060401 1148 255
0.09567938 -0.059865505 0.2560876 0.0011054701 1098 255
0.096898541 -0.059848275 0.25545239 0.0010793812 1122 255
0.098104082 -0.05982317 0.25477657 0.0010684609 1144 255
0.09920983 -0.05973861 0.25384277 0.0011033148 1065 252
0.10041275 -0.059713926 0.25316036 0.001101695 1088 255
0.10175471 -0.059771527 0.25282428 0.0011020995 1069 253
0.10304639 -0.05979855 0.25235802 0.0011297982 1053 249
0.10416582 -0.059726175 0.25147513 0.0011483906 1012 238
0.10512803 -0.059566416 0.25023147 0.0011911615 963 225
0.10688227 -0.059853915 0.2508733 0.0011979054 934 217
0.10828421 -0.059939783 0.25067723 0.0012358557 900 208
0.10965557 -0.060006954 0.25041556 0.001278722 854 196
0.11159601 -0.060380522 0.25144595 0.0013434453 782 176
0.11289788 -0.060404103 0.25103611 0.0014115862 737 164
0.11363693 -0.060129352 0.24941263 0.0014072021 730 162
0.11082935 -0.058004417 0.24016027 0.0013297963 817 186
0.11137828 -0.05766305 0.23834057 0.0012892518 846 193
0.11195641 -0.057343915 0.23664954 0.0012890877 828 189
0.11249657 -0.057012282 0.23494573 0.0012966867 821 187
0.11368027 -0.057010304 0.23463932 0.001348534 758 170
0.11495762 -0.057054866 0.23456343 0.0014345343 696 153
0.11612225 -0.057043128 0.23429681 0.001451312 690 152
0.1160636 -0.056436807 0.23163217 0.001416083 719 160
0.11719795 -0.056416925 0.2314193 0.0014325466 707 156
0.11894936 -0.056691531 0.2324575 0.001528182 647 140
0.11987302 -0.056570116 0.23191559 0.0015398124 628 135
0.12109156 -0.056588866 0.23199236 0.0016060227 597 127
0.12206408 -0.056493398 0.23164457 0.0016148564 578 122
0.12205745 -0.055950902 0.22950597 0.0016719038 557 116
-0.22933833 -0.091143094 0.3894369 0.019722132 22 0
-0.228634 -0.091637954 0.39064744 0.03369724 15 0
-0.2222555 -0.089847527 0.38217199 0.025634645 24 0
-0.21646024 -0.088263862 0.37465245 0.011565213 50 0
-0.21921746 -0.090170361 0.38199252 0.012041715 41 0
-0.21266644 -0.088247977 0.37316152 0.012551631 41 0
-0.2093751 -0.087656014 0.37002689 0.012245997 44 0
-0.20646828 -0.087215863 0.36759365 0.011123977 54 0
-0.20267032 -0.086387873 0.36358893 0.0083930241 69 0
-0.19400959 -0.083453014 0.35079437 0.0070766555 87 0
-0.18533985 -0.080460034 0.33784214 0.0052518276 131 2
-0.18239069 -0.079917833 0.33525339 0.0043361434 155 9
-0.18103559 -0.080070466 0.33563966 0.0039134412 175 14
-0.17916082 -0.079993978 0.33512536 0.0037728879 178 15
-0.17699113 -0.07978306 0.33411011 0.0035456282 186 17
-0.17543282 -0.07984633 0.334306 0.0036781793 189 18
-0.1739101 -0.079927199 0.33463901 0.0032775926 207 23
-0.17205516 -0.079855464 0.33439708 0.0031737129 225 27
-0.16968988 -0.079543091 0.33321089 0.0030037146 234 30
-0.16842903 -0.079747334 0.33425224 0.003049657 251 34
-0.16752601 -0.080126874 0.33609256 0.0027447843 271 40
-0.16584939 -0.080140427 0.33646026 0.0027618094 274 40
-0.16426934 -0.080201402 0.33708698 0.0026766881 269 39
-0.16267326 -0.080255739 0.33774325 0.0027549274 261 37
-0.16013327 -0.0798406 0.33647564 0.002582096 292 45
-0.15830639 -0.079775944 0.33673236 0.0027414989 270 39
-0.15372905 -0.078308798 0.33110452 0.0027473841 267 39
-0.1410014 -0.072612293 0.30758092 0.002313392 356 62
-0.13876361 -0.072251447 0.30664599 0.0020251775 405 75
-0.13649735 -0.07186754 0.30563703 0.0018991905 453 88
-0.13392335 -0.071311072 0.30391148 0.0018621136 469 93
-0.13146049 -0.070801698 0.30239832 0.0017347173 527 108
-0.1301074 -0.070885137 0.30343044 0.0017684749 504 102
-0.12852548 -0.070844419 0.30394471 0.0016824161 547 113
-0.12683772 -0.070743687 0.3042098 0.001678917 551 115
-0.12577496 -0.070993319 0.30598915 0.0016814009 546 113
-0.12402212 -0.070854783 0.30609947 0.0016905296 553 115
-0.1220456 -0.070583455 0.30563214 0.0015912266 595 126
-0.12012077 -0.070335649 0.30525884 0.0015486362 622 134
-0.11745618 -0.069642961 0.30294046 0.0015067277 644 139
-0.11543991 -0.069321886 0.30222151 0.0014996262 646 140
-0.11385584 -0.069255404 0.30260003 0.0014803773 665 145
-0.11242741 -0.069283105 0.30337924 0.0013977092 708 157
-0.11106163 -0.069350637 0.30432224 0.0014348805 708 157
-0.10999296 -0.069608025 0.30608842 0.0014773905 670 146
-0.10822485 -0.069423757 0.30589941 0.0013998164 733 163
-0.10666152 -0.06936758 0.30625805 0.0013836044 751 168
-0.10449798 -0.068913989 0.30484259 0.0013500301 784 177
-0.10277624 -0.068743005 0.30465645 0.0014027094 738 165
-0.10097828 -0.06851536 0.30420008 0.0013961475 733 163
-0.098981798 -0.068144381 0.30308652 0.0014640499 683 150
nan nan nan 0 620 133
-0.082660094 -0.05862492 0.26162294 0.0014880151 672 147
-0.082517438 -0.059420299 0.26559529 0.0016856217 530 109
-0.079686217 -0.058274284 0.26087371 0.0015464497 675 148
-0.075852968 -0.056347687 0.25262335 0.0013294899 858 197
-0.074481025 -0.056216978 0.25239772 0.0012304174 924 214
-0.073241867 -0.056183845 0.25259611 0.0012384689 896 207
-0.07372155 -0.057490014 0.2588107 0.0012653966 854 196
nan nan nan 0 654 142
nan nan nan 0 483 96
-0.084474578 -0.069325931 0.31323999 0.0020953296 385 70
-0.082756415 -0.069122702 0.31267306 0.0019666988 450 88
-0.081157058 -0.069013163 0.31251413 0.0018796007 462 91
-0.080244005 -0.069493935 0.31501609 0.0019880165 418 79
-0.083611988 -0.073769867 0.33472928 0.0023439459 323 54
-0.086151071 -0.077464089 0.35182384 0.003028163 240 31
nan nan nan 0 410 77
nan nan nan 0 578 122
-0.064528614 -0.061554343 0.2802898 0.0014856224 670 146
-0.063087717 -0.061426435 0.27992693 0.0014266061 720 160
-0.061849415 -0.061494544 0.28044689 0.0015338602 651 141
-0.062142413 -0.063121006 0.28806949 0.0016710181 557 116
-0.06501139 -0.067493662 0.30823395 0.0019791494 436 84
-0.063911647 -0.067850508 0.31006333 0.0020537332 415 78
-0.061226729 -0.066502094 0.30408743 0.0017709028 524 107
-0.06006144 -0.066779502 0.30553341 0.0018122009 487 97
-0.059301645 -0.067532115 0.30914718 0.0018315421 479 95
-0.057973858 -0.067659222 0.30989087 0.0017604947 508 103
-0.057477053 -0.068787299 0.31521359 0.0019754118 434 83
-0.056855112 -0.069820657 0.32009864 0.0019171239 458 90
-0.055781387 -0.070339747 0.3226212 0.0020039678 441 85
-0.054529421 -0.070656508 0.32420957 0.0019507465 458 90
-0.053505756 -0.07129544 0.32727039 0.0019368049 441 85
-0.053911492 -0.073931865 0.33949867 0.0022312673 377 68
-0.052340526 -0.073934518 0.3396298 0.0020839565 398 74
-0.051591862 -0.075134888 0.34525758 0.0021485086 392 72
-0.050448526 -0.075818866 0.34850848 0.0021551312 387 71
-0.049055409 -0.07616023 0.35017931 0.0021293582 386 70
-0.047526442 -0.076306798 0.35094887 0.0021202422 390 71
-0.045733325 -0.076024614 0.34974042 0.0020279335 420 80
-0.043871865 -0.075603984 0.34788844 0.0019191167 442 85
-0.042145707 -0.075393364 0.34699675 0.0018932265 472 93
-0.040508192 -0.075330921 0.34678158 0.0018317228 495 100
-0.038761906 -0.075052738 0.34556809 0.0017852141 520 106
-0.037006706 -0.074732631 0.34415632 0.0017073189 549 114
-0.03541835 -0.074735858 0.34422901 0.0017075462 563 118
-0.033916764 -0.074931085 0.34518197 0.0017081572 542 112
-0.032445155 -0.075215049 0.34654006 0.0017173575 523 107
-0.030826505 -0.075169936 0.34637842 0.0017262576 528 108
-0.029170895 -0.075024821 0.3457523 0.0016961038 545 113
-0.027562225 -0.074990623 0.3456338 0.0017036567 546 113
-0.026058093 -0.075254112 0.34688431 0.0017168338 545 113
-0.024650704 -0.075849779 0.34966332 0.0017517498 516 105
-0.02311004 -0.07609009 0.35080171 0.0017546436 514 105
-0.021481311 -0.076054797 0.3506667 0.0017955253 501 101
-0.01980719 -0.075839959 0.3497012 0.0017808992 518 106
-0.018038157 -0.075191379 0.346733 0.0017771826 534 110
-0.01636054 -0.074834712 0.34510827 0.0017177977 546 113
-0.014708184 -0.074529149 0.34371686 0.0017272921 534 110
-0.013030953 -0.074008495 0.34133115 0.0017341175 533 110
-0.011361686 -0.073396146 0.33852035 0.0016235348 581 123
-0.0097883604 -0.073307216 0.33812171 0.0016734542 557 116
-0.0082110735 -0.073149271 0.33740288 0.0017755588 518 106
-0.006652182 -0.07311967 0.33727419 0.0017737712 505 102
-0.0050979764 -0.073139228 0.3373706 0.0018055886 492 99
-0.0035340919 -0.072976097 0.33662263 0.0018306249 481 96
-0.0019668157 -0.072432443 0.33411777 0.0018778431 459 90
-0.00042233919 -0.071832329 0.33135074 0.0019077215 465 92
0.0010937575 -0.071047343 0.3277294 0.001818131 494 99
0.002574079 -0.07019759 0.32380772 0.0018183653 482 96
0.0040928973 -0.070636205 0.32582748 0.0019616859 443 86
0.00557834 -0.070417926 0.32481554 0.0019060998 474 94
0.0068259574 -0.067925446 0.31331211 0.0017217355 547 113
0.0082323812 -0.067608111 0.31184036 0.0015790651 625 134
0.0096213091 -0.067262851 0.31023818 0.0014795405 666 145
0.011022341 -0.067080647 0.30938658 0.0015178607 625 134
0.012621759 -0.068009183 0.31365588 0.0016317551 569 119
0.014494313 -0.0700671 0.32313138 0.0017331496 485 97
0.016420338 -0.071975589 0.33191478 0.0020732514 375 67
0.018393662 -0.073748142 0.34006816 0.0021174215 392 72
0.019881029 -0.073446788 0.33865571 0.001986492 437 84
0.021323584 -0.073035866 0.33673573 0.0018527516 473 94
0.022730587 -0.072567262 0.33454752 0.0017741575 533 110
0.024188766 -0.07231126 0.3333371 0.0017127272 532 109
0.025711486 -0.072267272 0.33310136 0.0016682846 565 118
0.027072659 -0.0717998 0.33091083 0.0015771751 632 136
0.028453873 -0.07143259 0.32917973 0.0015324643 623 134
0.029876545 -0.071201399 0.32807252 0.0015484069 618 132
0.031403355 -0.071228743 0.32815313 0.0015797464 609 130
0.032672446 -0.070695907 0.32564974 0.0015588655 615 132
0.033892665 -0.070108876 0.32289365 0.0016700848 558 116
0.033380017 -0.066137902 0.30455202 0.0016288005 569 119
0.034489911 -0.06557297 0.30189428 0.0016418599 565 118
0.035751957 -0.065329999 0.30071542 0.0017007109 537 111
0.036890868 -0.064888619 0.29861954 0.0017113761 565 118
0.037869189 -0.064206786 0.29541373 0.0016396621 595 126
0.038458187 -0.06293533 0.28949252 0.0015791118 605 129
0.039690427 -0.062766649 0.28864071 0.0016193326 606 129
0.040840898 -0.062483858 0.28725967 0.0015966677 613 131
0.041901622 -0.062085904 0.28534481 0.0015598871 626 135
0.042142667 -0.060534865 0.2781277 0.0014699933 691 152
