# .PCD v0.7 - Point Cloud Data file format
VERSION 0.7
FIELDS x y z noise intensity gray
SIZE 4 4 4 4 2 1
TYPE F F F F U U
COUNT 1 1 1 1 1 1
WIDTH 976
HEIGHT 1
VIEWPOINT 0 0 0 1 0 0 0
POINTS 976
DATA ascii
nan nan nan 0 380 79
nan nan nan 0 1745 255
nan nan nan 0 2662 255
nan nan nan 0 2721 255
-0.16320316 -0.13810201 0.74319184 0.00097438949 1159 242
-0.15982154 -0.13816291 0.74395192 0.0020009845 412 86
-0.15652503 -0.13830176 0.74510849 0.0027733096 273 57
-0.1555995 -0.14058912 0.75782412 0.0035756615 202 42
-0.15271191 -0.14116843 0.76131833 0.0018881373 471 98
nan nan nan 0 2057 255
nan nan nan 0 2094 255
-0.14039962 -0.13945404 0.75304937 0.0010342569 1158 242
-0.1376904 -0.14024512 0.75760949 0.0024727958 275 57
-0.13730188 -0.1435031 0.77548546 0.0095706927 56 11
-0.14074329 -0.15104611 0.81651986 0.018881375 35 7
-0.13899735 -0.15328448 0.82887787 0.020586768 29 6
nan nan nan 0 24 5
-0.13631257 -0.15909503 0.86078042 0.024464844 27 5
-0.12686987 -0.15252395 0.8254351 0.023424376 25 5
-0.12440588 -0.15419553 0.83467573 0.02330531 23 4
-0.12285649 -0.15714382 0.85081875 0.026972374 22 4
-0.11949255 -0.15788923 0.85502511 0.026323186 28 5
nan nan nan 0 24 5
-0.11207602 -0.15856402 0.85898286 0.023269953 22 4
-0.10900611 -0.15987475 0.86621839 0.023906413 23 4
-0.10354014 -0.1576373 0.85421753 0.028885987 21 4
-0.097986944 -0.15508473 0.84049529 0.027199727 22 4
-0.093674459 -0.15436648 0.83670247 0.022813482 22 4
-0.0888009 -0.15262218 0.8273375 0.023969591 23 4
-0.083757885 -0.15041696 0.81546378 0.022824779 26 5
-0.079394914 -0.14928313 0.80938905 0.022634422 24 5
-0.076258056 -0.15045653 0.81581694 0.019521814 30 6
-0.072917245 -0.15132844 0.82060421 0.016238879 35 7
-0.069323592 -0.15174231 0.82290202 0.01333905 40 8
-0.065541036 -0.15176664 0.82308203 0.01253885 48 10
-0.061500184 -0.15115914 0.81982982 0.012510631 47 9
-0.057506509 -0.15059564 0.8168115 0.012385173 48 10
-0.053261135 -0.14924788 0.80953449 0.011873487 52 10
-0.049058422 -0.14782566 0.80184913 0.012687839 49 10
-0.045028683 -0.1467354 0.79596043 0.011097332 51 10
-0.04121951 -0.14623426 0.79326391 0.011006406 50 10
-0.037645161 -0.14654973 0.79499441 0.010885749 48 10
-0.03393206 -0.14633486 0.79384524 0.011069987 55 11
-0.030133748 -0.14565615 0.7901774 0.012396324 53 11
-0.02665613 -0.14655413 0.79506069 0.010367488 54 11
-0.02316523 -0.14765351 0.80103493 0.010868855 50 10
-0.019525034 -0.14803767 0.80312741 0.010630643 52 10
-0.016132101 -0.15091467 0.81874239 0.010923036 54 11
-0.012608502 -0.15395238 0.83522779 0.012709282 41 8
-0.0089328028 -0.156986 0.85168988 0.018485894 33 6
-0.0050182701 -0.15728739 0.85332745 0.027065331 24 5
-0.001079083 -0.156201 0.84743458 0.023377283 20 4
0.002822675 -0.15604796 0.84660393 0.02003506 30 6
0.0066873287 -0.15521133 0.84206337 0.017711218 33 6
nan nan nan 0 35 7
nan nan nan 0 41 8
nan nan nan 0 38 7
0.019932792 -0.13931948 0.75582659 0.018397288 34 7
0.023160018 -0.13780038 0.74757677 0.017662609 33 6
0.02664382 -0.13800359 0.74866903 0.014066309 40 8
0.030656485 -0.14058548 0.76266336 0.012344639 42 8
0.034379147 -0.14144319 0.76730174 0.01093391 51 10
0.037810098 -0.14105268 0.7651664 0.012351817 51 10
0.041656524 -0.14214654 0.77108049 0.013046187 50 10
nan nan nan 0 34 7
0.05184393 -0.15112777 0.81974804 0.023612062 25 5
0.054959543 -0.14932883 0.80995917 0.016579073 38 7
0.057868484 -0.14723286 0.79855621 0.0096007893 59 12
0.06117164 -0.14633055 0.79362357 0.0086801117 74 15
0.064440861 -0.14545347 0.7888236 0.0073681581 82 17
0.067785986 -0.14483225 0.78540659 0.0072064358 79 16
0.071786828 -0.145604 0.78953755 0.0074653453 78 16
0.07559032 -0.14592032 0.79119259 0.0081742834 67 14
0.079623476 -0.14663045 0.79497582 0.0088935839 65 13
0.083485492 -0.14697678 0.79677927 0.0091302898 65 13
0.086737096 -0.14626458 0.79283679 0.0078816023 73 15
0.08995007 -0.14554746 0.78886032 0.0074481489 79 16
0.092975453 -0.1445944 0.78359741 0.0072098477 78 16
0.096088871 -0.14384446 0.77942723 0.0084001543 68 14
0.099518538 -0.14360493 0.77801383 0.010856536 49 10
0.10296275 -0.14340237 0.77679074 0.011170332 46 9
0.10694548 -0.14393817 0.77955604 0.011036395 49 10
0.11146578 -0.14513911 0.78591031 0.0094811125 63 13
0.11480205 -0.14477122 0.78375602 0.0096623311 69 14
0.11810172 -0.14438105 0.78146923 0.0082648387 75 15
0.12196785 -0.14468601 0.78293121 0.007846049 76 15
0.12613109 -0.14531569 0.78613448 0.0075101843 78 16
0.12938929 -0.14489661 0.78364855 0.007975216 81 16
0.1327078 -0.14456604 0.78162658 0.0081858551 77 16
0.13666639 -0.14493181 0.78335273 0.007923332 73 15
0.13821729 -0.14279132 0.77151823 0.0086517055 65 13
0.13976276 -0.14075311 0.76022655 0.010146391 56 11
0.14018933 -0.13771588 0.74353063 0.010015276 55 11
nan nan nan 0 53 11
nan nan nan 0 60 12
nan nan nan 0 84 17
0.12684801 -0.11346505 0.6114766 0.0044943467 142 29
0.1281842 -0.11215257 0.60408223 0.004003772 164 34
0.1287889 -0.11026998 0.59360766 0.0038802056 180 37
0.12893578 -0.10808252 0.58148545 0.0036563284 191 39
0.13110438 -0.10764479 0.57876581 0.0036083995 188 39
0.13230595 -0.10644665 0.5719434 0.003281198 206 43
0.1343804 -0.10598419 0.56905919 0.0033851678 208 43
0.13666545 -0.10570249 0.56712717 0.0031228291 219 45
0.13820469 -0.10486557 0.56219923 0.0030359665 248 51
0.13912795 -0.10360114 0.55496573 0.0028256474 260 54
0.14128989 -0.10328842 0.55281478 0.0026958128 272 56
0.14418775 -0.10351527 0.55352849 0.0027516182 261 54
0.146761 -0.10350519 0.55295014 0.0028770627 246 51
0.14731337 -0.10209489 0.54487425 0.0029501922 248 51
0.14848866 -0.10115697 0.53930706 0.0029123179 272 56
0.14443778 -0.09674979 0.51524907 0.0024390467 315 65
0.14542216 -0.095805041 0.50963694 0.0022404408 348 72
0.1455999 -0.094368085 0.501396 0.0022951739 353 73
0.14775291 -0.094236761 0.50007653 0.0022321169 353 73
0.15031214 -0.094364583 0.50010628 0.0022216092 349 72
0.1532892 -0.094746716 0.50145352 0.0024121362 334 69
0.15369356 -0.093551256 0.49443042 0.0024255801 355 74
0.15479697 -0.09281075 0.48979929 0.0021144405 381 79
0.15708658 -0.092792816 0.48896 0.0020961398 409 85
0.15816802 -0.092072092 0.4843961 0.0020183374 411 85
0.15927692 -0.091387823 0.48000824 0.0019065962 448 93
0.16011891 -0.09057191 0.47491464 0.0018461379 470 98
0.16199736 -0.090356864 0.47295377 0.0018557982 460 96
0.16426054 -0.090359353 0.47210646 0.001881125 470 98
0.1663346 -0.090259165 0.47069675 0.0019788223 418 87
0.16897751 -0.090466209 0.4708617 0.0021171074 405 84
0.173345 -0.091578886 0.47570086 0.0020461297 401 83
0.17343274 -0.090431012 0.46877298 0.0019619409 459 95
0.17538248 -0.090271071 0.46695617 0.0018408736 502 104
0.17783819 -0.090372309 0.4664683 0.0017161038 517 108
0.17998768 -0.090317346 0.46515238 0.0017166296 517 108
0.18278277 -0.09058369 0.46546951 0.0018566902 462 96
0.18537407 -0.090743758 0.46521837 0.0021424859 405 84
0.18925507 -0.091523662 0.46811903 0.0023654045 337 70
nan nan nan 0 268 56
0.20547426 -0.097021572 0.4938792 0.0026541837 288 60
0.20851508 -0.097308867 0.49414948 0.0025077756 301 62
0.21139504 -0.097515315 0.4940035 0.0025584763 301 62
nan nan nan 0 259 54
0.22672458 -0.10222915 0.51540321 0.0032437067 217 45
0.23037262 -0.10271633 0.51663798 0.0034837201 208 43
nan nan nan 0 233 48
nan nan nan 0 289 60
nan nan nan 0 316 66
0.3250519 -0.13874555 0.69170249 0.0026040431 291 60
0.3311356 -0.13985017 0.6958226 0.0032338512 211 44
0.33272672 -0.13905415 0.69056892 0.0025425644 320 66
0.33507052 -0.1385859 0.68704951 0.0022618899 338 70
0.34312779 -0.14046618 0.69526672 0.0027100355 272 56
0.34471223 -0.13968541 0.69041705 0.0043805153 134 28
0.3487784 -0.13991587 0.69069004 0.004037512 173 36
0.35324794 -0.14030196 0.69185495 0.0035457998 209 43
0.35071734 -0.13792749 0.67954743 0.0034353165 208 43
0.35071898 -0.13658541 0.67247504 0.0033846884 214 44
0.35518676 -0.1369918 0.67414933 0.0041096034 154 32
0.33225217 -0.1269225 0.62442148 0.0082624182 76 15
-0.16387746 -0.054043405 0.27647763 0.0060547269 100 20
-0.15519054 -0.051615044 0.26352069 0.0055821971 106 22
-0.15424082 -0.051740352 0.26366168 0.005494379 110 22
-0.15299621 -0.051768061 0.26334184 0.0056029796 110 22
-0.15170123 -0.051779065 0.26297659 0.0048897914 127 26
-0.15031123 -0.051757544 0.26248792 0.0049372907 136 28
-0.14829934 -0.051519584 0.26094681 0.0049599917 129 26
-0.1486202 -0.052095044 0.26356897 0.004656286 140 29
-0.1476108 -0.05221042 0.26390687 0.0040746336 163 34
-0.14605047 -0.052131251 0.26331007 0.0038240082 193 40
-0.14582235 -0.052530546 0.26517946 0.0034433689 199 41
-0.14588051 -0.053041369 0.26766184 0.0034190684 206 43
-0.14531066 -0.053331312 0.26908189 0.0031942956 206 43
-0.15112232 -0.055991132 0.28251404 0.005164322 112 23
-0.16070993 -0.060114376 0.3033936 0.0078364899 74 15
-0.15943764 -0.060215931 0.30404326 0.0057194568 103 21
-0.15798412 -0.060250368 0.30441594 0.0058608018 104 21
-0.15641941 -0.060242649 0.30463636 0.0062168851 105 21
-0.15359542 -0.059744935 0.30243537 0.0053550573 114 23
-0.15446168 -0.060687102 0.30758277 0.0059347176 104 21
-0.15318057 -0.060796157 0.30856898 0.0062135928 104 21
-0.15532665 -0.062281661 0.31660551 0.0051942808 114 23
nan nan nan 0 105 21
nan nan nan 0 98 20
-0.17178245 -0.071071818 0.36330733 0.006749873 88 18
-0.16938806 -0.070832521 0.3628425 0.0071042334 85 17
-0.16862527 -0.071277693 0.36592144 0.0075431718 79 16
-0.16833933 -0.071936406 0.37013915 0.0070225042 88 18
-0.16827807 -0.072706781 0.37497288 0.0073079248 85 17
-0.16572867 -0.072407357 0.37431419 0.0072632213 82 17
-0.16691969 -0.073753841 0.38219154 0.0068769599 89 18
-0.16389424 -0.073246785 0.38048375 0.0061176447 99 20
-0.15798749 -0.071425349 0.37192395 0.0050022416 132 27
-0.1509995 -0.069066636 0.36051443 0.0031729257 290 60
nan nan nan 0 241 50
nan nan nan 0 104 21
-0.28270966 -0.13402538 0.70461071 0.0049956823 133 27
-0.28372747 -0.13616285 0.71751183 0.00335145 193 40
nan nan nan 0 215 44
-0.27864009 -0.13709491 0.72569102 0.0012919296 842 175
-0.27587119 -0.13746661 0.72924858 0.0023203553 333 69
-0.26697737 -0.13475636 0.7163946 0.0019360313 464 96
-0.26183096 -0.13389136 0.71327329 0.0012470803 998 208
-0.26157671 -0.13553827 0.72350323 0.0012104878 819 171
-0.26164585 -0.13739935 0.73487389 0.0013389922 726 151
-0.26027781 -0.13854624 0.742414 0.0031710973 237 49
-0.25821006 -0.13934724 0.74807775 0.00203965 424 88
-0.25066954 -0.1371758 0.737728 0.0021794876 384 80
-0.24687743 -0.13702305 0.73816997 0.001824872 460 96
-0.24744219 -0.13931893 0.75177962 0.0025933872 269 56
-0.24016997 -0.13720497 0.74155235 0.0015685564 640 133
-0.23560505 -0.13659775 0.73940325 0.0014813587 703 146
-0.23328432 -0.13729301 0.74426329 0.0016355542 548 114
-0.22984351 -0.13734025 0.74557513 0.0014586417 654 136
-0.22675972 -0.13760561 0.74803257 0.0014036405 785 164
-0.22243036 -0.13711154 0.74632025 0.0011830578 1095 228
-0.21881284 -0.13704747 0.74690509 0.0011486966 1017 212
-0.21564934 -0.13727032 0.74901628 0.0014993201 628 131
-0.21263404 -0.13759643 0.75165689 0.0020310883 439 91
-0.20856351 -0.13723923 0.75052774 0.0020398456 404 84
-0.2048611 -0.13711612 0.75063992 0.002060005 396 82
-0.20287336 -0.13815641 0.75709128 0.0024955613 317 66
-0.19567406 -0.13562156 0.74390894 0.0016924896 632 132
-0.19494805 -0.13756275 0.75524235 0.0023403959 355 74
-0.19032402 -0.13677426 0.75156295 0.0012042437 1146 239
nan nan nan 0 2215 255
-0.18272121 -0.13633429 0.75034797 0.0019843385 383 80
-0.18298848 -0.1391964 0.76666898 0.0029004747 284 59
-0.18020535 -0.13980584 0.77056772 0.0016349022 659 137
nan nan nan 0 2139 255
nan nan nan 0 2735 255
nan nan nan 0 2586 255
-0.15963824 -0.1345548 0.74345171 0.0014644202 636 132
-0.15625128 -0.13460882 0.74414599 0.0023369603 327 68
-0.15338765 -0.13512631 0.74738145 0.0032856839 202 42
-0.15382859 -0.13864613 0.7672115 0.0032153444 234 48
-0.1474385 -0.13603002 0.75306898 0.0013923979 823 172
nan nan nan 0 2637 255
-0.14052118 -0.13608587 0.7539863 0.00087805593 1516 255
-0.13756217 -0.13661213 0.75717884 0.0017319786 455 95
-0.13687623 -0.13948223 0.77335083 0.0063251685 85 17
nan nan nan 0 37 7
-0.14140055 -0.15203683 0.84347868 0.020140586 30 6
-0.13742377 -0.15194958 0.84322757 0.026771426 23 4
-0.13311447 -0.15147884 0.84083134 0.023275148 26 5
-0.13022809 -0.15264772 0.84752107 0.024794329 27 5
-0.12676693 -0.15319438 0.85074359 0.024215473 24 5
-0.12285814 -0.15321778 0.85104674 0.027256308 23 4
-0.11870719 -0.15293072 0.8496114 0.025740266 22 4
-0.11498488 -0.15319517 0.85122705 0.027219934 21 4
-0.11209183 -0.1546222 0.85929221 0.026019808 23 4
nan nan nan 0 22 4
nan nan nan 0 23 4
-0.096016712 -0.14816774 0.82374942 0.026088065 23 4
nan nan nan 0 23 4
-0.087039664 -0.14585574 0.81106442 0.022290548 26 5
-0.083284318 -0.14582781 0.81098157 0.023533229 24 5
-0.079280563 -0.14534187 0.80834407 0.021415602 28 5
-0.075811505 -0.14583659 0.81115395 0.018433506 28 5
-0.072536573 -0.14677544 0.8164286 0.015410246 34 7
-0.069320492 -0.1479426 0.82296813 0.013497941 45 9
-0.06523487 -0.14728175 0.81933361 0.012694443 48 10
-0.061468486 -0.1473047 0.81949818 0.011635576 49 10
-0.057575792 -0.14700812 0.81788081 0.012366639 48 10
-0.053827282 -0.14706396 0.81821984 0.012013035 50 10
-0.048970614 -0.14387251 0.80048788 0.01239081 48 10
-0.045187932 -0.14357343 0.79884481 0.011000847 47 9
-0.041256998 -0.14270853 0.79405046 0.011487957 55 11
-0.037420418 -0.1420334 0.79030943 0.012701472 49 10
-0.033686794 -0.14164566 0.78816497 0.010601914 51 10
-0.029685153 -0.13990106 0.77846837 0.010956228 52 10
-0.026255911 -0.14074533 0.78317541 0.012426928 47 9
-0.022906506 -0.14235477 0.79213881 0.011012191 47 9
-0.019439703 -0.1437064 0.79966635 0.01118093 51 10
-0.015995644 -0.14589763 0.81186467 0.011245347 52 10
-0.012568488 -0.1496277 0.83262509 0.012491511 46 9
-0.0088256206 -0.15122528 0.84151793 0.015486194 37 7
-0.0049591647 -0.15154947 0.84332365 0.021564668 28 5
-0.001070933 -0.15114623 0.84108055 0.021849347 31 6
0.0028135809 -0.15165706 0.84392297 0.018925166 31 6
0.0067177485 -0.15201992 0.84594101 0.017041953 35 7
0.010514299 -0.15057515 0.83789897 0.013322028 46 9
0.013861971 -0.14520435 0.80800915 0.012817421 42 8
0.017535498 -0.14479829 0.80574536 0.013382528 42 8
0.020058217 -0.13669166 0.76062977 0.01676712 32 6
0.023404611 -0.13577475 0.75552088 0.026420746 23 4
0.027076432 -0.13673867 0.76087672 0.015529769 36 7
0.030822247 -0.13781245 0.76684189 0.012848408 43 8
0.034407139 -0.13801983 0.76798421 0.011928248 54 11
0.038001105 -0.13822158 0.76909292 0.013002283 47 9
0.042085037 -0.14001901 0.77907807 0.011875442 49 10
0.046749733 -0.1433143 0.79739398 0.016489519 34 7
0.051252697 -0.14566967 0.81047642 0.022049047 27 5
0.054681934 -0.14486066 0.80594909 0.014831954 39 8
0.057699885 -0.14313425 0.79631478 0.010214862 59 12
0.061012417 -0.14230137 0.79164791 0.0083874511 72 15
0.06438154 -0.14168705 0.78819275 0.0086456146 73 15
0.06772954 -0.14109434 0.7848534 0.0077045122 74 15
0.071262114 -0.1409267 0.78387338 0.0079318602 73 15
0.07546182 -0.14203092 0.78996181 0.0084052868 71 14
0.079361558 -0.14249487 0.7924822 0.0090314792 63 13
0.083382346 -0.14312579 0.79592401 0.0094227958 63 13
0.087052211 -0.14312652 0.79585373 0.0087362351 69 14
0.089622766 -0.14139289 0.78613251 0.0077745668 78 16
0.092755005 -0.14064573 0.7818892 0.0080256881 72 15
0.096075244 -0.1402289 0.77947414 0.0092678564 65 13
0.099598482 -0.14012773 0.77880466 0.012181925 49 10
0.10248483 -0.13916874 0.77335829 0.012870889 45 9
0.10655263 -0.13982467 0.77687562 0.010186816 55 11
0.11146736 -0.14151312 0.78611612 0.0086746709 67 14
0.11496139 -0.14134829 0.78504783 0.0076591829 74 15
0.11797652 -0.14062275 0.78085357 0.0082658157 75 15
0.12163951 -0.14068954 0.78104633 0.0070409384 84 17
0.12531972 -0.14077184 0.78131068 0.0074045123 84 17
0.1289444 -0.14078888 0.78119791 0.0073572323 79 16
0.13213339 -0.14034227 0.77849734 0.0075866552 75 15
0.13508093 -0.13966966 0.77452862 0.0081804674 71 14
0.13657919 -0.13757198 0.76264501 0.009550578 59 12
0.13586631 -0.13340876 0.73930532 0.010012805 58 12
0.13785294 -0.13203561 0.7314204 0.010985575 52 10
nan nan nan 0 71 14
nan nan nan 0 103 21
0.12433909 -0.11092079 0.61366332 0.0049498137 144 30
0.12527676 -0.10925845 0.60417348 0.0041049016 171 35
0.12558475 -0.10713163 0.59210771 0.0038162137 180 37
0.12601976 -0.1052019 0.58112472 0.0038404032 188 39
0.12732597 -0.10406507 0.57451254 0.0032363178 216 45
0.12970237 -0.10383166 0.57287318 0.0031744023 217 45
0.13012348 -0.1020738 0.56281012 0.0031540894 219 45
0.1324984 -0.1018877 0.56140023 0.0032923038 220 45
0.13267402 -0.10005031 0.55087906 0.0029678023 237 49
0.1354311 -0.10019235 0.55124235 0.0029028903 254 53
0.13839118 -0.10047651 0.55236369 0.0026780253 277 57
0.14087138 -0.10040824 0.55152434 0.002679287 275 57
0.14343582 -0.10040139 0.55099946 0.0026500649 274 57
0.14600624 -0.10039889 0.55047458 0.0030096897 247 51
0.14662924 -0.099080563 0.5427177 0.0029115917 248 51
0.14421082 -0.095786974 0.52414185 0.002778685 285 59
0.14324676 -0.093553498 0.51137358 0.0024338865 317 66
0.14351411 -0.092184588 0.50332779 0.0021344656 381 79
0.14533031 -0.091838807 0.50085384 0.0021412214 389 81
0.14676073 -0.091264136 0.49711224 0.0020558636 398 83
0.14919317 -0.09132085 0.4967874 0.0021083253 384 80
0.15190294 -0.091542929 0.49733379 0.002265699 355 74
0.15233904 -0.090408891 0.4904927 0.0020889486 390 81
0.15432797 -0.090216607 0.48874399 0.0020831048 389 81
0.15631057 -0.090026349 0.48698199 0.0020003472 421 87
0.15776166 -0.089539953 0.48359609 0.0019544482 422 88
0.15785939 -0.088310413 0.4761838 0.0018957536 471 98
0.15906973 -0.087729268 0.4722563 0.0018448688 493 103
0.16135928 -0.087751225 0.47155312 0.0017207868 542 113
0.16388606 -0.087899812 0.47150156 0.0017656429 511 106
0.16629036 -0.087979563 0.47105134 0.0017526937 503 105
0.16853017 -0.08797133 0.47010252 0.0017867076 488 102
0.17095916 -0.088060766 0.46964842 0.0018246608 476 99
0.17258489 -0.087739505 0.4669807 0.0017297741 525 109
0.17461249 -0.087628163 0.46541047 0.0016549863 555 116
0.17679358 -0.087595716 0.4642373 0.0016449252 553 115
0.17998561 -0.088058688 0.46566263 0.0017847213 503 105
0.1822298 -0.088052198 0.46457976 0.0018707026 462 96
0.18268502 -0.087192029 0.45898488 0.0018484666 464 96
0.18547396 -0.087453038 0.45928344 0.0019797841 432 90
0.1911848 -0.089069054 0.46666199 0.0021591773 371 77
0.20172839 -0.092871815 0.48542014 0.0025381085 314 65
0.20493241 -0.093246296 0.48620078 0.0022394357 348 72
0.21048747 -0.094669543 0.49242544 0.0023738185 319 66
0.22281149 -0.099070072 0.51406634 0.0028353594 240 50
0.22706023 -0.099821314 0.51671606 0.0030470355 243 50
0.22958039 -0.099804349 0.51539588 0.0028974426 242 50
0.23300464 -0.10017645 0.51610321 0.0028556918 259 54
nan nan nan 0 298 62
nan nan nan 0 305 63
nan nan nan 0 261 54
0.32981822 -0.13581188 0.69362181 0.0029063495 268 56
0.32930282 -0.13418309 0.68398112 0.001870543 507 105
0.33272186 -0.13417459 0.68270701 0.0017977804 512 107
0.33504856 -0.13373025 0.67932004 0.0019960825 381 79
0.34335545 -0.13565765 0.688079 0.0036604735 199 41
0.34843501 -0.13628411 0.69033867 0.0042033484 167 34
0.35245308 -0.13648707 0.69057333 0.0040102135 160 33
0.35137993 -0.13473383 0.68104887 0.0038759506 175 36
0.34769836 -0.13202427 0.66684335 0.003933806 170 35
0.35187092 -0.13232051 0.66796327 0.0047574844 122 25
0.29703531 -0.11063305 0.55828243 0.0095521929 67 14
-0.15275095 -0.049082644 0.25753254 0.0054131802 104 21
-0.15490031 -0.050197702 0.26286048 0.0052331109 111 23
-0.15330821 -0.050109029 0.2619113 0.005246568 116 24
-0.15208018 -0.05013885 0.26162064 0.0053366227 112 23
-0.15141889 -0.050357673 0.26235461 0.0052091135 119 24
-0.15073024 -0.050571188 0.26310003 0.0049320757 130 27
-0.15014753 -0.050824348 0.26409301 0.00446339 138 28
-0.14877301 -0.050811645 0.26374942 0.0041587264 157 32
-0.14761728 -0.050874107 0.26384398 0.0044151475 148 30
-0.1465078 -0.050953787 0.26407701 0.0037241566 173 36
-0.1447735 -0.050815642 0.26323241 0.003212777 215 44
-0.14630611 -0.0518323 0.26842108 0.0032021662 207 43
-0.14471717 -0.051751792 0.26798075 0.0033734734 209 43
-0.14331949 -0.051738802 0.26794499 0.0035650167 171 35
-0.15621726 -0.056935761 0.29495436 0.0071191811 80 16
-0.15772161 -0.058040645 0.30083713 0.0068346616 98 20
-0.15538171 -0.057738647 0.29949069 0.0054737427 112 23
-0.15359825 -0.057639498 0.29925433 0.0060015451 112 23
-0.15618928 -0.059196316 0.30768177 0.0056652925 103 21
-0.15401016 -0.05895837 0.30684498 0.0057486836 104 21
-0.15258177 -0.059005924 0.30754653 0.0056945342 108 22
-0.15634324 -0.061082076 0.31888995 0.0059146942 97 20
nan nan nan 0 112 23
-0.17931153 -0.071526185 0.37480235 0.0060301879 107 22
-0.17579482 -0.070867196 0.37210724 0.0063485592 96 20
-0.16976774 -0.069171235 0.36398089 0.0075243572 83 17
-0.16833523 -0.069330856 0.36563465 0.0071685021 83 17
-0.16633976 -0.069259554 0.36609951 0.006552706 89 18
-0.16680379 -0.070222102 0.37206259 0.0066815312 94 19
-0.16667923 -0.070955656 0.37685099 0.0067679468 93 19
-0.16564134 -0.071312599 0.37966546 0.0065511959 91 19
-0.1626707 -0.070836119 0.37804887 0.0063257478 101 21
-0.16056319 -0.070728779 0.378398 0.0056851641 108 22
nan nan nan 0 321 67
nan nan nan 0 795 166
nan nan nan 0 94 19
-0.27860147 -0.12869163 0.69513196 0.005424554 117 24
-0.27963269 -0.13075723 0.70792693 0.0032681061 221 46
nan nan nan 0 182 38
-0.28374606 -0.13602795 0.73978025 0.0015277329 702 146
-0.27604365 -0.13402604 0.73047656 0.0016422855 499 104
-0.27164122 -0.13359524 0.72967046 0.0024899247 309 64
-0.26908734 -0.13407423 0.73379493 0.0021832706 361 75
-0.26440781 -0.13349274 0.73207402 0.0016503234 500 104
-0.26114312 -0.13361953 0.73419118 0.0012901691 834 174
-0.25380379 -0.13163644 0.72465408 0.0017157004 581 121
nan nan nan 0 546 114
-0.24304132 -0.12959152 0.71594816 0.0012650329 967 202
-0.24784289 -0.13403222 0.74173617 0.0022498909 372 77
-0.24858353 -0.13637327 0.7559244 0.0028851216 267 55
-0.24086134 -0.1340722 0.74433845 0.00164061 608 127
-0.23726524 -0.13403358 0.74525028 0.0018440319 480 100
-0.23176481 -0.13290177 0.7400322 0.0016536601 596 124
-0.22956416 -0.13365652 0.74527454 0.0014962029 676 141
-0.22646758 -0.13390498 0.74766076 0.0012450917 899 187
-0.2229881 -0.13393132 0.74876881 0.0012954521 714 149
-0.21908306 -0.13369884 0.74838907 0.001128783 984 205
-0.21621369 -0.13410105 0.75152481 0.0018454855 426 89
-0.21247336 -0.1339675 0.75162214 0.0019920131 404 84
-0.21010065 -0.13470627 0.75658047 0.0028211635 257 53
-0.20529202 -0.13388184 0.7527225 0.0022125109 366 76
-0.20309635 -0.13476239 0.75841588 0.0029202367 276 57
-0.19918439 -0.13451517 0.75773162 0.0018925786 471 98
-0.19514488 -0.13417132 0.75646681 0.001896813 469 98
-0.1909771 -0.13372499 0.75458807 0.0012349323 932 194
nan nan nan 0 2362 255
-0.18009959 -0.13093306 0.73999208 0.0010025431 1104 230
-0.17951223 -0.1330512 0.75250769 0.0027568075 255 53
nan nan nan 0 338 70
-0.17249675 -0.13304062 0.75345302 0.0010638626 1301 255
nan nan nan 0 2413 255
nan nan nan 0 2731 255
-0.1595847 -0.13106115 0.743536 0.00093384023 1351 255
-0.15616652 -0.13108663 0.74406397 0.0017960625 451 94
-0.15274025 -0.13110629 0.7445367 0.0026861976 276 57
-0.15107365 -0.13267221 0.75377303 0.0032307352 205 42
-0.1506601 -0.13543865 0.76981986 0.0021951532 391 81
nan nan nan 0 1832 255
nan nan nan 0 2307 255
-0.13757885 -0.13312584 0.75752765 0.0012508291 773 161
-0.13489063 -0.13393469 0.76237977 0.0044479002 120 25
nan nan nan 0 44 9
-0.140109 -0.14678587 0.8360225 0.019264789 32 6
-0.13485757 -0.14528924 0.82771623 0.022297066 26 5
-0.13196383 -0.14631951 0.83378869 0.018256372 28 5
-0.12988336 -0.14834048 0.84549552 0.022508083 26 5
-0.1275059 -0.15013698 0.85591274 0.025843341 22 4
-0.12413322 -0.15083905 0.86007953 0.026456131 22 4
-0.11864076 -0.14892657 0.84932375 0.024048798 26 5
-0.11372759 -0.14763544 0.84209591 0.028669275 22 4
nan nan nan 0 19 3
nan nan nan 0 23 4
nan nan nan 0 22 4
nan nan nan 0 30 6
nan nan nan 0 33 6
nan nan nan 0 30 6
-0.082389973 -0.14056331 0.80238414 0.018219478 30 6
-0.078960143 -0.14104331 0.80518174 0.019164737 31 6
-0.075683966 -0.14185861 0.80988783 0.018292775 33 6
-0.072619677 -0.14317632 0.81745684 0.014845775 41 8
-0.069423512 -0.14436395 0.82427865 0.011475961 50 10
-0.065508813 -0.14410843 0.82285571 0.011959927 53 11
-0.06139734 -0.14336202 0.81862497 0.010682646 53 11
-0.05793589 -0.14413504 0.82306653 0.011529763 51 10
nan nan nan 0 50 10
-0.049599919 -0.14198542 0.81083459 0.010908134 53 11
-0.044967234 -0.13920933 0.79499799 0.010804663 53 11
-0.040950987 -0.13801847 0.78821129 0.010419813 50 10
-0.03697921 -0.13676028 0.78103757 0.011314954 52 10
-0.033040233 -0.13536523 0.77308029 0.011488955 56 11
-0.029294923 -0.13452242 0.76827478 0.010922926 51 10
-0.025842467 -0.1349775 0.77088028 0.011630166 50 10
nan nan nan 0 46 9
nan nan nan 0 54 11
-0.015720906 -0.13971551 0.79795319 0.011424411 52 10
-0.012459743 -0.14453018 0.82545382 0.010642922 52 10
-0.0087805912 -0.14659646 0.83725673 0.016624551 36 7
-0.0049059852 -0.14608063 0.83431178 0.017212274 31 6
-0.0010494337 -0.14431469 0.8242265 0.019882698 32 6
0.002785441 -0.14629105 0.83551401 0.019824786 31 6
0.0066938559 -0.14759567 0.84296429 0.014469053 38 7
0.010351182 -0.14443864 0.8249321 0.012945989 47 9
0.014041171 -0.14331067 0.81848776 0.012749691 45 9
0.017469054 -0.14055145 0.80272603 0.013646139 42 8
0.020496899 -0.13610008 0.77729958 0.020719185 28 5
0.023638539 -0.13361607 0.76310807 0.023916272 24 5
0.027077101 -0.13323632 0.76093352 0.018852616 36 7
0.030519066 -0.13295844 0.75933927 0.013853917 44 9
0.034178033 -0.13358587 0.762914 0.011299116 51 10
0.037844732 -0.1341237 0.76597518 0.010545445 51 10
0.042201802 -0.13680778 0.78129125 0.012725516 48 10
0.046910726 -0.14012095 0.80019683 0.016279681 34 7
0.050942145 -0.14107503 0.80562717 0.024293015 23 4
0.054277085 -0.14010175 0.80004805 0.015584461 37 7
0.057451755 -0.13886489 0.7929607 0.0095888209 62 12
0.061033603 -0.13870126 0.79199821 0.0087111909 66 13
0.064318381 -0.1379191 0.78749996 0.0084793642 64 13
0.067696482 -0.1374099 0.78455609 0.0084723905 68 14
0.071318813 -0.13742295 0.78458929 0.0088417931 64 13
0.075429544 -0.13833039 0.78972304 0.0093350485 63 13
0.079276264 -0.13869242 0.79173666 0.0099864472 56 11
0.08304625 -0.13889427 0.79282898 0.0092445388 61 12
0.086734779 -0.13894857 0.79307228 0.0084274299 67 14
0.089643583 -0.13779992 0.78644228 0.0080894185 69 14
0.092929684 -0.137298 0.78349614 0.0091859261 68 14
0.096145414 -0.13673356 0.78018528 0.01089154 53 11
0.099582955 -0.13651392 0.77883321 0.013471482 41 8
0.1030264 -0.13631739 0.77760327 0.01270775 44 9
0.10662907 -0.13633762 0.77759975 0.010152052 54 11
0.11187139 -0.13838483 0.7891441 0.010320773 59 12
0.11529943 -0.13812944 0.78754395 0.0085113719 75 15
0.11782447 -0.13684092 0.78004271 0.0075266385 81 16
0.12139475 -0.13680679 0.77968013 0.0074265958 87 18
0.12489905 -0.13670236 0.77890331 0.0076873917 81 16
0.12778653 -0.13594759 0.77440721 0.0076947608 75 15
0.13107695 -0.1356509 0.77250713 0.0089040212 67 14
0.13267733 -0.13366732 0.76098812 0.01158435 54 11
0.13208675 -0.12963589 0.73780423 0.010329505 54 11
0.13345483 -0.12768131 0.72643483 0.012203579 53 11
nan nan nan 0 71 14
nan nan nan 0 116 24
0.12109057 -0.10771698 0.61213756 0.0045135301 153 31
0.12366375 -0.10749003 0.61057884 0.0041687908 164 34
0.12374524 -0.10515585 0.59703994 0.0037507811 177 36
0.12291319 -0.10216445 0.57976657 0.0036114254 192 40
0.12434089 -0.10113918 0.57364452 0.0031908876 221 46
0.12557966 -0.10000641 0.56690121 0.0030311784 237 49
0.12557562 -0.097950734 0.55491811 0.0030142821 251 52
0.12738618 -0.097364694 0.55125082 0.0028351818 253 52
0.13018307 -0.097540766 0.5518803 0.0031178291 244 51
0.13184284 -0.096874513 0.54772574 0.0028249456 252 52
0.13405858 -0.096634291 0.54596269 0.0027325936 266 55
0.13733806 -0.097155534 0.54847914 0.0026359567 276 57
0.13874157 -0.096354872 0.54351199 0.0025431027 289 60
0.14178111 -0.096698783 0.54498035 0.002610663 279 58
0.1447659 -0.096993878 0.54614705 0.0029910025 252 52
0.14488381 -0.095391184 0.53661048 0.0027176046 277 57
0.14173211 -0.091727041 0.51548237 0.0024972444 314 65
0.14211027 -0.090431824 0.50767088 0.0023999857 332 69
0.14322062 -0.089637518 0.5026595 0.0021693534 369 77
0.14470594 -0.089099824 0.49907073 0.0021622081 396 82
0.14642709 -0.088722184 0.49635911 0.0020375268 396 82
0.1487771 -0.088731453 0.49578869 0.0021439916 368 76
0.15140083 -0.088901155 0.49608728 0.0021986736 364 76
0.15176602 -0.087759674 0.48904964 0.0021356058 403 84
0.15391442 -0.087668121 0.48784545 0.0021126883 404 84
0.15509686 -0.087037176 0.48361829 0.0019652741 432 90
0.15683384 -0.086731255 0.48117742 0.0018471115 462 96
0.157271 -0.085725628 0.47483853 0.0018109807 489 102
0.15868691 -0.085274376 0.47155598 0.0016855209 538 112
0.16048342 -0.085037388 0.46943721 0.0016306986 558 116
0.16308548 -0.085227892 0.46965125 0.0016712883 558 116
0.16614197 -0.085647486 0.47109422 0.0017385382 527 110
0.1676854 -0.085286312 0.4682149 0.001754662 527 110
0.16982071 -0.085231721 0.46699649 0.0017264127 532 111
0.17188284 -0.0851423 0.46556282 0.0017206119 536 112
0.17351723 -0.084846035 0.46297699 0.0015988129 572 119
0.17565161 -0.084798671 0.46172938 0.00158671 577 120
0.178973 -0.085318357 0.46354082 0.0017035499 532 111
0.18204904 -0.085709646 0.4646225 0.0018024512 495 103
0.1818217 -0.084555157 0.45731476 0.0017417039 518 108
0.18350919 -0.084308274 0.45491651 0.0017006346 542 113
0.1863478 -0.084589846 0.45535502 0.0017347402 500 104
0.19311157 -0.086625494 0.46519497 0.0021036067 379 79
0.20510721 -0.090933174 0.48714632 0.0026323139 275 57
0.21216296 -0.092976704 0.49688187 0.0025543559 296 61
0.22445032 -0.09724015 0.51840007 0.0024208927 312 65
0.2276292 -0.097505838 0.51855373 0.0023804861 320 66
0.22891979 -0.096965775 0.51443905 0.0024157593 311 65
0.22929764 -0.096055269 0.5083974 0.0021760724 381 79
0.23225231 -0.096232288 0.50814801 0.0019818703 413 86
nan nan nan 0 362 75
nan nan nan 0 297 62
0.32779682 -0.13151899 0.68993682 0.0022655565 370 77
0.32906035 -0.13064669 0.68399954 0.0014500376 689 144
0.33188584 -0.13040619 0.6814698 0.0015568652 646 135
0.33891046 -0.13180365 0.68758714 0.0024568266 256 53
0.34270534 -0.13192946 0.68716496 0.003232847 212 44
0.34858587 -0.13284759 0.69097817 0.0029084005 236 49
0.35403737 -0.13358565 0.6939674 0.0040996959 157 32
0.35556716 -0.13284396 0.68939978 0.0053227535 129 26
0.34543401 -0.12780173 0.6626752 0.0045220507 147 30
0.34722218 -0.1272248 0.65926105 0.0064663775 80 16
0.26139137 -0.094861194 0.4913426 0.0085586514 75 15
-0.15563866 -0.048694652 0.26223195 0.0053617819 114 23
-0.15537326 -0.04902612 0.2635029 0.0051877447 118 24
-0.15394126 -0.048992012 0.26284373 0.005773467 112 23
-0.15322389 -0.049186729 0.26345029 0.0049974262 123 25
-0.15250491 -0.049384326 0.26411051 0.005040294 121 25
-0.15250893 -0.049821604 0.26609144 0.0046640206 132 27
-0.15044147 -0.049583923 0.2645117 0.0047835256 139 29
-0.14904548 -0.049565285 0.26414943 0.0046878736 142 29
-0.14782512 -0.049605235 0.26414835 0.003919573 165 34
-0.14691921 -0.049752396 0.26476821 0.0037542607 193 40
-0.14601929 -0.049904335 0.26546484 0.0036250886 205 42
-0.14379545 -0.049602408 0.26380068 0.0033648596 206 43
-0.14307353 -0.049817771 0.2649419 0.0033539927 206 43
-0.14107178 -0.049587369 0.263767 0.0031564189 236 49
-0.14734687 -0.052289773 0.2782526 0.0042732828 142 29
-0.15703903 -0.056268893 0.29960793 0.0083967783 74 15
-0.15425931 -0.055813316 0.29742208 0.0052234204 114 23
-0.15532064 -0.056752216 0.30272928 0.0057483856 117 24
-0.15431552 -0.056947246 0.30413282 0.005556826 103 21
-0.15043384 -0.056073975 0.29988137 0.0050847009 123 25
-0.1541111 -0.058029193 0.31081808 0.0054117753 116 24
-0.15455076 -0.058792982 0.31544623 0.0053563942 117 24
nan nan nan 0 108 22
-0.17982614 -0.069844045 0.37617546 0.0060514645 110 22
-0.1752595 -0.068792403 0.37128675 0.005995498 98 20
-0.16692039 -0.06622158 0.35819429 0.0072065494 89 18
-0.16387813 -0.065719187 0.35628435 0.007494872 88 18
-0.16562209 -0.067146219 0.36487153 0.0071441843 86 17
-0.1647726 -0.0675418 0.36789724 0.0064901039 99 20
-0.16496937 -0.068379916 0.37336487 0.0069399397 85 17
-0.16352862 -0.068550564 0.37521178 0.0071572559 89 18
-0.16286537 -0.069054782 0.37889934 0.0069619147 91 19
-0.16083075 -0.068982497 0.37943098 0.0056702602 107 22
nan nan nan 0 219 45
nan nan nan 0 1011 211
nan nan nan 0 179 37
nan nan nan 0 112 23
-0.2789968 -0.12702718 0.70706415 0.004207694 167 34
-0.28125742 -0.12965164 0.72330689 0.0026592144 276 57
-0.28106305 -0.13119636 0.73354506 0.0022412397 385 80
-0.27603778 -0.13049671 0.73120904 0.002246564 326 68
-0.26917064 -0.12889697 0.72376406 0.001802497 468 97
-0.26679379 -0.12943372 0.72826344 0.0024277479 320 66
nan nan nan 0 233 48
-0.26077849 -0.12992203 0.73386931 0.001502571 648 135
-0.25537187 -0.12896469 0.72981709 0.0018308411 510 106
-0.25731635 -0.13174459 0.74688947 0.0018134665 479 100
nan nan nan 0 1835 255
-0.24786082 -0.13051496 0.7424444 0.0014338758 693 144
-0.24400482 -0.13033919 0.74264061 0.0016299322 639 133
-0.24011394 -0.13013937 0.74265337 0.0012494476 925 193
-0.23757154 -0.13067533 0.74682516 0.0015319388 616 128
-0.23245594 -0.12979072 0.74283338 0.0017617332 510 106
-0.22908403 -0.12986752 0.74429595 0.0018618656 475 99
-0.22597542 -0.1300983 0.74660271 0.0015639223 541 113
-0.22321016 -0.13053714 0.75006855 0.0019853108 403 84
-0.21930939 -0.13031539 0.74970084 0.001500231 649 135
-0.2149723 -0.12982288 0.74773222 0.0018905606 488 102
-0.21368861 -0.13118857 0.75643414 0.0032732105 197 41
-0.21347412 -0.13326786 0.76923531 0.0036431178 200 41
-0.20654321 -0.13115358 0.75779444 0.0026144823 295 61
-0.20290145 -0.13109058 0.75815797 0.0026104297 304 63
-0.19944848 -0.13114943 0.75919229 0.0021714596 392 81
-0.19502932 -0.1305636 0.75645888 0.0017242513 569 118
-0.18756936 -0.12788302 0.74154103 0.0011407398 908 189
nan nan nan 0 997 208
nan nan nan 0 2137 255
-0.17880137 -0.12903732 0.74990946 0.0017218788 472 98
-0.17655259 -0.12994869 0.75571072 0.0027471383 305 63
nan nan nan 0 476 99
-0.16831182 -0.12901548 0.75120616 0.00086460332 1611 255
nan nan nan 0 2649 255
nan nan nan 0 2653 255
-0.15622143 -0.12768233 0.74462897 0.0013095869 833 174
-0.15261033 -0.12754801 0.74419498 0.0019986692 409 85
-0.14933214 -0.12769215 0.74536413 0.0028654239 261 54
-0.14898919 -0.13041238 0.76155692 0.003023257 240 50
-0.1451751 -0.13015246 0.7603327 0.0015578821 650 135
nan nan nan 0 1996 255
nan nan nan 0 1674 255
nan nan nan 0 295 61
-0.13458754 -0.13360816 0.78153676 0.0084501738 61 12
-0.13295686 -0.13562779 0.7935648 0.016257517 34 7
-0.13062459 -0.13702595 0.80194575 0.01977976 28 5
nan nan nan 0 24 5
-0.12791054 -0.14224342 0.83285022 0.027890021 25 5
-0.12600456 -0.14446522 0.84602457 0.023095734 26 5
-0.12322098 -0.14579079 0.85394055 0.025395684 24 5
-0.11867175 -0.14504585 0.84971642 0.027207488 23 4
nan nan nan 0 27 5
nan nan nan 0 36 7
nan nan nan 0 33 6
nan nan nan 0 42 8
nan nan nan 0 47 9
nan nan nan 0 57 11
nan nan nan 0 58 12
nan nan nan 0 43 8
-0.078165427 -0.13594991 0.79716682 0.015346025 38 7
-0.07561484 -0.13799985 0.80923206 0.016941534 32 6
-0.072612934 -0.13939607 0.81745929 0.012827549 43 8
-0.069033034 -0.13977478 0.81971496 0.012009149 54 11
-0.065435737 -0.14016007 0.82200468 0.0097213807 62 12
-0.061720803 -0.14032526 0.82299936 0.0098128067 57 11
nan nan nan 0 55 11
nan nan nan 0 64 13
nan nan nan 0 64 13
nan nan nan 0 68 14
nan nan nan 0 67 14
nan nan nan 0 81 16
nan nan nan 0 79 16
nan nan nan 0 76 15
-0.025295474 -0.12864412 0.75458765 0.0086239381 66 13
nan nan nan 0 78 16
nan nan nan 0 87 18
nan nan nan 0 77 16
nan nan nan 0 69 14
nan nan nan 0 63 13
nan nan nan 0 55 11
nan nan nan 0 52 10
nan nan nan 0 46 9
nan nan nan 0 50 10
nan nan nan 0 48 10
0.013837142 -0.13751221 0.80661362 0.011707594 50 10
0.017327243 -0.13574225 0.7962299 0.013089155 43 8
0.020497063 -0.13252005 0.77732718 0.016834009 31 6
0.023677558 -0.13031508 0.76439077 0.022216698 24 5
0.027076282 -0.12972663 0.76093566 0.017274659 34 7
0.030627215 -0.12991875 0.76205802 0.012352197 46 9
0.033980347 -0.12931859 0.75853187 0.011779636 52 10
0.037636533 -0.12987615 0.76179516 0.010751201 49 10
0.041506428 -0.13101314 0.76845515 0.011249969 47 9
0.046799067 -0.13610931 0.79833519 0.015240896 36 7
0.050499819 -0.13617033 0.79867929 0.019809965 30 6
0.053730361 -0.13504125 0.79204065 0.017573372 39 8
0.057271961 -0.13478789 0.79053509 0.0097238049 57 11
0.060861316 -0.1346705 0.78982377 0.0095094191 63 13
0.064234465 -0.13411492 0.7865389 0.0087817106 63 13
0.06777209 -0.13394375 0.78550434 0.0089412928 66 13
0.071241289 -0.13366157 0.78381419 0.0099135255 60 12
0.074855618 -0.13366579 0.78379828 0.0095908837 60 12
0.07942719 -0.1353002 0.79333556 0.010143434 57 11
0.082534201 -0.13440579 0.78803855 0.010588094 63 13
0.085940495 -0.13405356 0.7859143 0.0088453237 67 14
0.08976049 -0.13434908 0.78758031 0.0090998961 69 14
0.092745215 -0.13341999 0.78206009 0.0092847329 63 13
0.095978342 -0.13290443 0.77895612 0.012532907 47 9
0.099642277 -0.13300109 0.77943188 0.015517225 31 6
0.10361644 -0.1334907 0.78220028 0.014892734 39 8
0.10781366 -0.13422504 0.78639179 0.013319888 50 10
0.1110799 -0.1337903 0.78372246 0.010647435 58 12
0.11370528 -0.1326354 0.77682459 0.009325346 67 14
0.11691159 -0.13220802 0.77417725 0.0089310221 71 14
0.12084215 -0.13260071 0.77631897 0.0077113644 76 15
0.12410685 -0.13226117 0.77416033 0.008355625 73 15
0.12630354 -0.13083431 0.76562548 0.0095715439 67 14
0.12817819 -0.12916064 0.7556358 0.010797817 53 11
0.12911752 -0.12665823 0.74078882 0.010573732 52 10
0.13066573 -0.1248669 0.73009217 0.010714483 51 10
nan nan nan 0 72 15
nan nan nan 0 121 25
0.11765772 -0.10435183 0.60950547 0.0040226192 164 34
0.11990274 -0.10385386 0.60635561 0.0037586957 179 37
0.12160987 -0.10292343 0.60066801 0.0038418134 172 35
0.11911602 -0.098558664 0.57493436 0.0035530815 202 42
0.12167733 -0.09847606 0.57417524 0.003131141 228 47
0.11926351 -0.09445668 0.55045736 0.0027038213 280 58
0.12180252 -0.09444619 0.55009645 0.0025937543 282 58
0.12377239 -0.094003886 0.54720384 0.0025818516 290 60
0.12670797 -0.09429808 0.54858017 0.0026453927 283 59
0.12899806 -0.094109736 0.54712987 0.0026450118 284 59
0.13091542 -0.093662016 0.54415411 0.0025932409 286 59
0.13319851 -0.093487978 0.54275024 0.0025695646 291 60
0.13567348 -0.093452588 0.54213107 0.0026007146 282 58
0.13856721 -0.093701653 0.54313922 0.0025881534 287 59
0.14135072 -0.093868591 0.54364681 0.0025952419 282 58
0.143866 -0.093854666 0.54308271 0.0027550003 257 53
0.14246939 -0.091333404 0.52799988 0.0027539339 271 56
0.14191575 -0.089429207 0.51648474 0.002470321 306 63
0.14178158 -0.087848708 0.50683504 0.0023199059 344 71
0.14198275 -0.086524598 0.49865779 0.0021086421 380 79
0.14377332 -0.086196274 0.49620521 0.0020571286 414 86
0.14590456 -0.086079426 0.49494785 0.0020253707 400 83
0.14872937 -0.086369 0.49600053 0.0021710589 387 80
0.15065363 -0.086134762 0.4940185 0.0021297317 391 81
0.15193431 -0.085545272 0.48997849 0.0020089347 409 85
0.15247108 -0.084560893 0.48366204 0.0019595358 423 88
0.15397531 -0.084134199 0.4805198 0.0019105623 441 92
0.15543811 -0.083697617 0.47730103 0.0018282813 481 100
0.15647763 -0.08304891 0.47285476 0.0017132732 513 107
0.15797749 -0.082659423 0.46986622 0.0017580348 538 112
0.15978236 -0.082438171 0.4678123 0.0016408766 563 117
0.16204302 -0.08245492 0.46708336 0.0015999045 574 119
0.16456559 -0.082602665 0.46706733 0.0016737833 571 119
0.16698678 -0.082696252 0.46671525 0.0016162826 567 118
0.16912392 -0.082648568 0.46553835 0.0015893083 587 122
0.17065091 -0.082307838 0.46268868 0.0016611705 587 122
0.17291394 -0.082326315 0.46183622 0.0015582585 604 126
0.17500389 -0.082262948 0.46050057 0.0015494322 605 126
0.1775059 -0.082392447 0.46022028 0.0015962987 578 120
0.17963865 -0.082349457 0.45895341 0.0016664 548 114
0.18157277 -0.082217596 0.4571732 0.0016396443 566 118
0.18171223 -0.081286095 0.45094237 0.0015303876 637 133
0.18392894 -0.081294984 0.44992507 0.0015615721 593 123
0.19088568 -0.083373971 0.46032467 0.0019903872 412 86
nan nan nan 0 245 51
0.22092402 -0.094268635 0.51794749 0.0028211041 263 54
0.22528999 -0.095035739 0.52088362 0.0023452898 356 74
0.22649473 -0.094467089 0.51650047 0.0022249483 378 79
0.2272476 -0.093724728 0.51119602 0.002089089 399 83
0.22851677 -0.093209334 0.50716335 0.0019509039 422 88
0.23142722 -0.093367316 0.50682348 0.0021106622 365 76
nan nan nan 0 277 57
nan nan nan 0 242 50
nan nan nan 0 330 68
nan nan nan 0 478 99
nan nan nan 0 495 103
nan nan nan 0 271 56
0.33665898 -0.12619169 0.67543149 0.0027809546 267 55
0.34907883 -0.129535 0.69230676 0.0025875273 271 56
0.35601071 -0.13079569 0.69813901 0.0030782309 236 49
0.35881236 -0.13052908 0.69594264 0.006392634 104 21
nan nan nan 0 113 23
nan nan nan 0 70 14
0.23308228 -0.082361877 0.43818772 0.0080555538 74 15
-0.16327815 -0.049704324 0.27493382 0.00549524 107 22
-0.15473616 -0.047505673 0.26227051 0.0055899885 114 23
-0.1550211 -0.048002463 0.26454496 0.0054002497 111 23
-0.15502614 -0.048420448 0.26641715 0.0059017148 105 21
-0.15468875 -0.048737857 0.26777259 0.0050758659 124 25
-0.15253001 -0.048481956 0.26602247 0.0047649448 131 27
-0.15023644 -0.048178256 0.26406044 0.0044725272 143 29
-0.14891742 -0.048184428 0.26384678 0.0044866242 141 29
-0.14919616 -0.048712384 0.2665379 0.004382554 144 30
-0.14694631 -0.048416857 0.26477388 0.0036673853 181 37
-0.1449645 -0.048205007 0.26352164 0.0037258458 184 38
-0.14381842 -0.048269704 0.26383534 0.0035621142 180 37
-0.14247712 -0.048269477 0.26384872 0.0034979896 211 44
-0.14094055 -0.048202455 0.26355186 0.0031484659 231 48
-0.13973783 -0.048249442 0.2639333 0.00362049 184 38
-0.1585748 -0.05528374 0.30261749 0.0065944181 85 17
-0.15825829 -0.055712841 0.30523515 0.0063411701 96 20
-0.15648481 -0.055632461 0.30512336 0.0056358837 109 22
-0.15587801 -0.055969365 0.3073602 0.0055025024 113 23
-0.15292923 -0.05546369 0.30502367 0.005208272 114 23
-0.15317649 -0.056118645 0.30912361 0.0050867223 116 24
-0.15324765 -0.056721885 0.31299892 0.0057640402 107 22
nan nan nan 0 110 22
-0.17808804 -0.067299791 0.37283403 0.0057838722 110 22
-0.17408213 -0.066483751 0.36910176 0.0066071353 96 20
-0.1640666 -0.063330472 0.35238072 0.0064597311 93 19
-0.16489848 -0.064341381 0.35883221 0.0063588037 98 20
-0.16356395 -0.06451986 0.36068007 0.0067670238 94 19
-0.16305755 -0.065032586 0.36442393 0.0067545716 92 19
-0.16185744 -0.065277018 0.36668789 0.0069350135 89 18
-0.16105229 -0.065688081 0.36990538 0.0067032855 91 19
-0.16136804 -0.066570997 0.37580198 0.0070152553 88 18
-0.1610229 -0.067198552 0.38027805 0.006344575 102 21
nan nan nan 0 131 27
nan nan nan 0 527 110
nan nan nan 0 611 127
nan nan nan 0 100 20
-0.27785048 -0.12308667 0.70488107 0.0047910563 139 29
-0.27923313 -0.1252401 0.71883023 0.0026908172 292 61
-0.27691239 -0.12576587 0.72343779 0.0026076739 294 61
-0.27179033 -0.12501654 0.72067082 0.0019713161 435 90
-0.27345908 -0.12741183 0.73601228 0.0027456665 277 57
-0.26617357 -0.12564324 0.72726768 0.0034286417 202 42
nan nan nan 0 151 31
-0.26131958 -0.1266734 0.73607212 0.0018281307 483 100
-0.25723624 -0.12639573 0.73581165 0.0018904286 456 95
-0.25165305 -0.12536319 0.73109925 0.0016379242 594 124
-0.24758257 -0.12506582 0.7306174 0.0015437597 684 142
-0.24733907 -0.1267207 0.74151003 0.0014213512 753 157
-0.24348855 -0.12654866 0.74168324 0.001353158 722 150
-0.24328232 -0.12829341 0.75306118 0.0019401237 395 82
-0.23747207 -0.12709081 0.74710095 0.0015435354 573 119
-0.23249134 -0.1263026 0.74351728 0.0018275919 486 101
-0.22894037 -0.12627883 0.74438554 0.0017001184 470 98
-0.22833715 -0.12790556 0.75495481 0.0027255169 311 65
-0.22202648 -0.12633608 0.74661922 0.0015689573 604 126
-0.21790512 -0.12598196 0.74541289 0.0015938047 623 130
-0.21635631 -0.12712786 0.75304908 0.0018116554 475 99
-0.21475764 -0.12828198 0.76071161 0.0020100933 395 82
-0.21183628 -0.12867166 0.76381379 0.0022398904 381 79
nan nan nan 0 816 170
-0.20201987 -0.12699388 0.75531024 0.001837632 438 91
-0.19968829 -0.12775876 0.76054037 0.0029673211 244 51
-0.19752628 -0.12866178 0.76656842 0.0025978945 289 60
-0.18772271 -0.12452893 0.74254507 0.001336572 796 166
-0.18755391 -0.12675226 0.75638258 0.0018188492 518 108
-0.18197227 -0.12533258 0.74845493 0.0010299985 1279 255
-0.17655966 -0.12397622 0.74086505 0.0011178283 871 182
-0.17571613 -0.12583803 0.75248069 0.0030008538 248 51
-0.17437918 -0.12741487 0.76237857 0.0026137542 309 64
-0.17189719 -0.12820306 0.76753998 0.00144998 776 162
nan nan nan 0 1994 255
nan nan nan 0 2748 255
nan nan nan 0 2281 255
-0.15280898 -0.12426277 0.74543828 0.0014488313 684 142
-0.14931259 -0.12422521 0.74552977 0.0023229835 324 67
-0.14646518 -0.12473861 0.74890882 0.0029846283 240 50
-0.14582728 -0.12720421 0.76399559 0.0029471847 280 58
-0.14167953 -0.12665458 0.76095814 0.0014183089 750 156
nan nan nan 0 2654 255
nan nan nan 0 1059 221
-0.13313013 -0.12858991 0.77328092 0.0031553595 197 41
-0.13170376 -0.13071895 0.78628588 0.010892777 50 10
-0.12835333 -0.13100487 0.78819233 0.020966571 26 5
-0.12605153 -0.13240899 0.79681408 0.022038823 25 5
-0.12622407 -0.13657475 0.82204765 0.023290712 28 5
-0.12351453 -0.1377836 0.829476 0.027268503 24 5
nan nan nan 0 30 6
nan nan nan 0 31 6
nan nan nan 0 41 8
nan nan nan 0 48 10
nan nan nan 0 71 14
nan nan nan 0 93 19
-0.080917977 -0.11526423 0.69452316 0.0052650617 132 27
-0.077476412 -0.11490793 0.69243199 0.0043473179 150 31
-0.07445474 -0.11517052 0.69406372 0.0041933716 162 33
-0.072145604 -0.11660834 0.70277268 0.005867423 112 23
nan nan nan 0 67 14
nan nan nan 0 51 10
nan nan nan 0 54 11
-0.068547435 -0.13504095 0.81400716 0.010621511 63 13
-0.064676657 -0.13479051 0.8125217 0.01030564 65 13
nan nan nan 0 69 14
nan nan nan 0 70 14
nan nan nan 0 95 19
nan nan nan 0 123 25
-0.039550234 -0.11599609 0.69928926 0.0048865085 138 28
-0.036499791 -0.11654276 0.7025907 0.0049506947 141 29
-0.033209044 -0.1163539 0.70145661 0.0044710943 150 31
-0.029832 -0.11578935 0.69805634 0.004378722 150 31
-0.026277415 -0.11431601 0.68917638 0.0048529911 131 27
-0.023539498 -0.11647876 0.70221663 0.0052573099 126 26
-0.02044517 -0.1172861 0.70708472 0.0049821292 132 27
-0.017075183 -0.11651839 0.70245701 0.004540252 144 30
-0.013836407 -0.11649641 0.70232469 0.0045390166 146 30
-0.010573531 -0.11619613 0.7005145 0.0047586155 143 29
-0.0073592342 -0.1164004 0.70174593 0.0043000686 149 31
-0.0041266955 -0.11641017 0.70180482 0.0048233625 138 28
-0.00089761568 -0.11694135 0.70500708 0.0050712521 124 25
nan nan nan 0 96 20
nan nan nan 0 83 17
nan nan nan 0 84 17
nan nan nan 0 68 14
0.016994912 -0.12954091 0.78096634 0.0099410778 58 12
0.020135948 -0.12666728 0.7636416 0.014079067 41 8
0.023383267 -0.1252176 0.75490105 0.016944816 38 7
0.027218988 -0.12688622 0.76495939 0.014798854 41 8
0.030584469 -0.12623149 0.76101023 0.012274001 49 10
0.033672169 -0.12468284 0.7516709 0.012295268 49 10
0.037466992 -0.12579721 0.758385 0.010943318 49 10
0.040639609 -0.12481061 0.75243163 0.014189306 43 8
nan nan nan 0 32 6
nan nan nan 0 25 5
0.052977353 -0.12955061 0.78097868 0.017106365 36 7
0.056523591 -0.1294318 0.78024799 0.010526971 53 11
0.059869941 -0.12889688 0.77700579 0.0091041001 61 12
0.063942641 -0.12989786 0.78301871 0.0089183263 65 13
0.067486107 -0.12977421 0.78224826 0.0091249943 62 12
0.070603192 -0.12888476 0.7768575 0.0098726125 58 12
0.073975421 -0.12852444 0.77465171 0.010778213 53 11
0.078176893 -0.12957168 0.7809242 0.010450757 50 10
0.082294993 -0.13039467 0.78583848 0.0095336232 61 12
0.085564688 -0.12986064 0.78256828 0.0099213626 62 12
0.088883251 -0.12944098 0.77998054 0.0093233846 65 13
0.092336304 -0.12924221 0.77871674 0.0097702052 59 12
0.095613793 -0.12882176 0.77610946 0.01339918 40 8
0.099506788 -0.12923101 0.77849227 0.018643517 29 6
