# .PCD v0.7 - Point Cloud Data file format
VERSION 0.7
FIELDS x y z noise intensity gray
SIZE 4 4 4 4 2 1
TYPE F F F F U U
COUNT 1 1 1 1 1 1
WIDTH 950
HEIGHT 1
VIEWPOINT 0 0 0 1 0 0 0
POINTS 950
DATA ascii
-0.22401732 -0.1689624 0.65867835 0.0072028888 86 19
-0.21606329 -0.16531551 0.64570421 0.0031275565 214 47
-0.2121256 -0.16467984 0.64443046 0.0031587898 206 46
-0.20499183 -0.16150717 0.63317138 0.0031021172 241 53
-0.20088908 -0.1606628 0.63098139 0.0034300033 217 48
-0.19641481 -0.15949094 0.62746054 0.0035394544 209 46
-0.19604549 -0.1616677 0.63708925 0.004574128 140 31
-0.19270787 -0.1614268 0.63717175 0.0032952004 171 38
nan nan nan 0 399 89
nan nan nan 0 360 80
nan nan nan 0 340 75
-0.12901513 -0.11536574 0.45808676 0.001576848 520 116
-0.12517352 -0.11385123 0.45269006 0.0015052732 644 143
-0.12121557 -0.11217619 0.44661644 0.0014292829 775 173
-0.11899924 -0.11208201 0.44680661 0.0013993864 772 172
-0.11668961 -0.11189494 0.44660458 0.0013235507 792 177
-0.11456006 -0.11187684 0.44705573 0.0013050033 797 178
-0.11228877 -0.11171705 0.44692007 0.0012605203 862 192
-0.1094878 -0.11101409 0.44458836 0.0012256472 901 201
-0.10733671 -0.11095548 0.4448151 0.0012122745 891 199
-0.10517967 -0.11088828 0.44498846 0.0012125268 910 203
-0.10340595 -0.11123069 0.4467887 0.0013051145 839 187
-0.10155615 -0.11150374 0.44829518 0.0013005596 775 173
-0.10051289 -0.1126926 0.45347178 0.0013547328 739 165
-0.098387979 -0.11269394 0.45385709 0.0014006681 726 162
-0.098889798 -0.11577044 0.46662092 0.0014542062 632 141
nan nan nan 0 614 137
-0.095415175 -0.11686498 0.47173807 0.0015805402 613 136
-0.096042179 -0.12041542 0.48640913 0.001655628 536 119
nan nan nan 0 422 94
-0.10766644 -0.1416928 0.573102 0.0023393843 338 75
-0.10489148 -0.14155546 0.57289279 0.0025764781 302 67
-0.098173067 -0.13595006 0.5505237 0.002179736 414 92
-0.095333353 -0.1355592 0.54924148 0.002011918 458 102
-0.09209042 -0.13455766 0.54546732 0.0018321296 472 105
-0.08861082 -0.13314371 0.54000229 0.001803123 513 114
-0.085380055 -0.13203205 0.53574491 0.0016016979 563 125
-0.083160408 -0.13246417 0.53773761 0.0016206964 612 136
-0.081426807 -0.13372128 0.54306984 0.001596633 605 135
-0.079872131 -0.13536198 0.54995257 0.0016663105 549 122
-0.077420674 -0.13554107 0.5508883 0.0017201138 522 116
-0.074794851 -0.13541672 0.55057943 0.0017321107 517 115
-0.071740441 -0.13448015 0.54695594 0.0017749545 487 108
nan nan nan 0 612 136
-0.059935436 -0.12090272 0.49203801 0.0012754526 809 180
-0.057487834 -0.12055328 0.49075446 0.0013585967 818 182
-0.057992961 -0.12662205 0.51559627 0.0015607551 650 145
-0.055639558 -0.1267028 0.51605374 0.0015121812 659 147
-0.052700158 -0.12539646 0.51085246 0.0013801404 740 165
-0.050520163 -0.12585923 0.51284993 0.0013930902 719 160
-0.048838839 -0.1276712 0.52033979 0.0014761921 639 142
-0.047448792 -0.13047212 0.53185683 0.0017429787 546 122
nan nan nan 0 433 96
-0.047010358 -0.1442311 0.58814573 0.0021195197 349 77
-0.043479893 -0.14159527 0.5774858 0.0017692493 475 106
-0.040687144 -0.14117405 0.57584935 0.00174268 502 112
-0.03755676 -0.13944025 0.56885141 0.0016635763 563 125
-0.035065353 -0.13999635 0.57118845 0.0017074163 522 116
-0.032462075 -0.14016002 0.57191879 0.0016491221 547 122
-0.029337745 -0.13790348 0.56276691 0.0016580261 543 121
-0.025287844 -0.13043374 0.53233165 0.0016317773 629 140
-0.022686061 -0.12962803 0.52908593 0.0015014153 649 145
-0.021430902 -0.13725191 0.56024343 0.0017920615 478 106
-0.018915426 -0.1377905 0.56247711 0.0020082844 466 104
-0.016328037 -0.13789338 0.56292748 0.0018149485 481 107
-0.014056693 -0.14121015 0.57649422 0.0018778448 455 101
-0.011495613 -0.14248689 0.5817284 0.0020501672 435 97
-0.0088528162 -0.14322098 0.58474272 0.0018891364 471 105
-0.0061341505 -0.14283343 0.58317304 0.0017218965 520 116
-0.0034099373 -0.14160822 0.5781787 0.001704267 587 131
-0.00073626108 -0.14120924 0.57655317 0.0015336479 643 143
0.0019252442 -0.14102149 0.57578564 0.0015215157 640 143
0.0045896042 -0.14113937 0.5762614 0.0016185802 640 143
0.0072954227 -0.14197755 0.57967353 0.0015350224 626 139
0.010053726 -0.14311263 0.58429319 0.001611023 575 128
0.012796138 -0.1435888 0.58621782 0.0016356405 556 124
0.015492585 -0.14347288 0.58572036 0.0017433411 551 123
0.018186284 -0.14336982 0.5852707 0.00164044 551 123
0.020621527 -0.14151973 0.57768464 0.0015942333 573 128
0.023061698 -0.1401237 0.57194805 0.0015400221 629 140
0.025692927 -0.14005633 0.57162982 0.0016332383 570 127
0.028249593 -0.13963297 0.56985372 0.0016934894 543 121
0.030800864 -0.13925745 0.5682677 0.0017226657 519 115
0.033335369 -0.1388711 0.56663239 0.0017894512 495 110
0.035437319 -0.13687038 0.55840522 0.0016538335 522 116
0.037288591 -0.13423899 0.54760146 0.0015531821 620 138
0.039242949 -0.13228984 0.53957731 0.0015379798 674 150
0.041923035 -0.13287394 0.54188013 0.0015942246 615 137
0.045872264 -0.13718767 0.55938369 0.0018699074 474 105
0.048716597 -0.13791281 0.5622443 0.0020250273 432 96
0.051252805 -0.13773632 0.56142163 0.001819652 469 104
0.054040316 -0.13821964 0.5632807 0.0017377199 499 111
0.056386124 -0.13758069 0.56055856 0.0016009752 572 127
0.058994837 -0.13761126 0.56055677 0.0016156943 600 134
0.061431263 -0.13725431 0.55896819 0.0015542938 634 141
0.063362554 -0.13584328 0.55307996 0.0015230617 618 138
0.064104952 -0.13209216 0.53766066 0.0016297306 593 132
0.06448064 -0.12789442 0.52042347 0.001554929 596 133
0.066715673 -0.12755442 0.51888013 0.001617773 601 134
0.067575797 -0.12470089 0.5071066 0.0014460236 676 151
0.069671996 -0.12424361 0.50507218 0.0014234415 711 158
0.071255468 -0.12293157 0.4995555 0.0014305719 729 162
0.07303185 -0.12202452 0.49567753 0.0013624065 742 165
0.075154275 -0.12173344 0.49429286 0.0013164416 779 174
0.07727664 -0.12145954 0.49296767 0.0013398489 810 181
0.0792806 -0.12102065 0.49096259 0.001281378 820 183
0.081344813 -0.12069575 0.48940933 0.0013008474 840 187
0.083442912 -0.12043744 0.48811507 0.0012562537 866 193
0.085789815 -0.12054243 0.48828059 0.0012916804 862 192
0.088059671 -0.12053654 0.48798349 0.001233004 877 195
0.090121262 -0.12025303 0.48654941 0.0012277183 904 202
0.092013061 -0.11976247 0.4842653 0.0011754577 946 211
0.094157189 -0.11961596 0.4833594 0.0011489826 996 222
0.096370228 -0.11956181 0.48281217 0.0011458626 1001 223
0.098668925 -0.11961397 0.4826788 0.0011397023 1013 226
0.10076371 -0.11942213 0.48154515 0.0011912879 1008 225
0.10294046 -0.1193337 0.48081273 0.0011520889 992 221
0.10534279 -0.11950497 0.48110947 0.0011712805 961 214
0.10761461 -0.1195241 0.48077554 0.0011601872 966 215
0.10970676 -0.11934699 0.47963476 0.001148936 1001 223
0.11176348 -0.11913924 0.47835377 0.0011448874 992 221
0.11401645 -0.11914475 0.47791082 0.0011329564 1012 226
0.11623833 -0.11911819 0.47731984 0.001199195 975 217
0.11806948 -0.11869982 0.47514087 0.0011529297 979 218
0.12072155 -0.11910696 0.47624594 0.0011537435 982 219
0.12350842 -0.1196298 0.47778854 0.0012436062 932 208
0.1256718 -0.1195408 0.47686425 0.0012845966 844 188
0.12812026 -0.11972132 0.47699282 0.0013676141 765 170
0.12901033 -0.1184646 0.47137868 0.0012934871 801 179
0.12779863 -0.11535355 0.45838666 0.0012012272 901 201
0.12915869 -0.11462918 0.45487717 0.001128241 1013 226
0.13017741 -0.11363068 0.45026752 0.0010873196 1082 241
0.13129823 -0.11275223 0.44612229 0.0010467586 1162 255
0.13326813 -0.1126193 0.44491085 0.0010257419 1218 255
0.13543138 -0.11265137 0.44432971 0.0010382095 1213 255
0.1376543 -0.11273132 0.44391462 0.0010476337 1162 255
0.13985778 -0.11279318 0.44340536 0.0010802825 1107 247
0.14197615 -0.11278555 0.44260088 0.0010828383 1101 246
0.14386863 -0.11260133 0.4410834 0.0010595992 1136 253
0.14513713 -0.11194126 0.43768704 0.0010198131 1224 255
0.14652923 -0.11139406 0.43472078 0.001008718 1258 255
0.14784214 -0.11080297 0.43157262 0.00098503532 1309 255
0.14933912 -0.11036441 0.42900839 0.00099533808 1361 255
0.15152052 -0.11043676 0.42841625 0.00096108101 1349 255
0.15387139 -0.11062898 0.42827162 0.00097376213 1304 255
0.15614659 -0.11076238 0.42788318 0.00096668728 1325 255
0.15837026 -0.11085618 0.42732817 0.00094875257 1374 255
0.160211 -0.11068299 0.42573532 0.0009681735 1383 255
0.16294785 -0.11112538 0.42650142 0.00099245447 1289 255
0.1652001 -0.11123025 0.42596364 0.0010092201 1232 255
0.16663535 -0.1107893 0.42333809 0.0010083443 1228 255
0.16791125 -0.11025463 0.42036581 0.0010023447 1251 255
0.16966152 -0.11004073 0.41863009 0.00099975325 1262 255
0.17200235 -0.11021037 0.41836533 0.0010374034 1183 255
0.1742941 -0.11034493 0.41798085 0.0010719032 1114 248
0.17592253 -0.11006129 0.41603434 0.0011123803 1121 250
0.17728087 -0.10961729 0.41351297 0.0010535897 1155 255
0.17699189 -0.10817669 0.40727702 0.0010550015 1120 250
0.17900728 -0.10816127 0.40645307 0.0011524253 997 222
0.1837903 -0.10979967 0.41187337 0.0014124308 709 158
0.19277103 -0.11388138 0.42646846 0.0016242873 574 128
0.19500151 -0.11392927 0.42598414 0.0018084998 521 116
0.20059063 -0.115917 0.43279976 0.0018834571 458 102
0.20241551 -0.11571005 0.43147409 0.0018737272 454 101
0.20515537 -0.11602497 0.43216068 0.0019363968 432 96
0.20734283 -0.11602416 0.43173984 0.0019654208 415 92
0.20828968 -0.11533638 0.42883754 0.002112343 401 89
0.20835172 -0.11417794 0.42426431 0.0020073985 409 91
0.21007176 -0.11394253 0.42319915 0.0021597988 376 84
0.21194308 -0.11379308 0.42252973 0.002377725 325 72
0.2149515 -0.11425105 0.42419195 0.0026103149 275 61
0.21867104 -0.11507411 0.42728618 0.0028138768 251 56
0.2270298 -0.11829837 0.43937624 0.0040672976 183 40
0.23295298 -0.1202031 0.44664913 0.0041792556 174 38
nan nan nan 0 126 28
0.28134179 -0.14239912 0.52986765 0.0079571418 71 15
-0.17284477 -0.075998366 0.2950094 0.0046125781 132 29
-0.17614467 -0.078109719 0.30245703 0.0059889248 122 27
-0.17834948 -0.079767585 0.30814248 0.006050189 109 24
-0.19261251 -0.086894087 0.33490711 0.0073625669 100 22
-0.19483137 -0.088664249 0.34098619 0.0064503057 92 20
-0.19179712 -0.088053949 0.33793959 0.0064599672 96 21
-0.16269949 -0.075360514 0.28866002 0.0052609481 120 26
-0.15360215 -0.071786106 0.27446613 0.0050442307 120 26
nan nan nan 0 33 7
nan nan nan 0 52 11
nan nan nan 0 114 25
nan nan nan 0 153 34
-0.29724717 -0.14545448 0.55220103 0.0039813458 158 35
-0.30066192 -0.14852296 0.56330746 0.0043152324 167 37
-0.29929891 -0.14926751 0.56567985 0.0039368747 165 36
-0.30155984 -0.15185134 0.57511038 0.0047501437 134 29
nan nan nan 0 83 18
nan nan nan 0 61 13
nan nan nan 0 53 11
nan nan nan 0 125 27
-0.29490989 -0.15605809 0.59076446 0.0054728487 130 29
-0.28873071 -0.15435889 0.58459485 0.006601295 113 25
nan nan nan 0 140 31
nan nan nan 0 111 24
nan nan nan 0 109 24
nan nan nan 0 115 25
nan nan nan 0 66 14
nan nan nan 0 128 28
nan nan nan 0 290 64
nan nan nan 0 122 27
-0.29056361 -0.17117597 0.65567446 0.0079932036 86 19
-0.28635034 -0.17062674 0.65481359 0.0066274297 90 20
nan nan nan 0 73 16
-0.31295884 -0.19085546 0.7354098 0.0079725422 61 13
nan nan nan 0 81 18
-0.2587733 -0.16160087 0.62535101 0.0025473172 293 65
-0.2563045 -0.16200453 0.62828898 0.0035866366 252 56
nan nan nan 0 153 34
nan nan nan 0 173 38
nan nan nan 0 143 31
nan nan nan 0 172 38
nan nan nan 0 100 22
nan nan nan 0 160 35
-0.23883428 -0.16500004 0.64986837 0.0051720943 138 30
-0.23924355 -0.16750802 0.66115135 0.0054330942 113 25
nan nan nan 0 165 36
-0.22699019 -0.16332656 0.64732188 0.0039926446 170 37
-0.22321388 -0.16286272 0.64677948 0.0042315195 176 39
-0.22528945 -0.16671613 0.66338104 0.0082193855 79 17
-0.21685919 -0.16279413 0.649014 0.0030637055 205 45
-0.20627114 -0.15711373 0.62753409 0.0021810681 352 78
-0.20562588 -0.15895028 0.63601911 0.0029801023 243 54
-0.2052729 -0.16107158 0.64564061 0.0036222781 167 37
-0.19911624 -0.15863419 0.6369549 0.0030817688 219 48
-0.19700077 -0.15939057 0.64104956 0.0029348338 233 52
nan nan nan 0 254 56
nan nan nan 0 356 79
nan nan nan 0 406 90
-0.12876302 -0.11109389 0.44952998 0.0015822354 590 131
-0.12639546 -0.11089091 0.44933292 0.0015139255 650 145
-0.12386446 -0.11053512 0.44849163 0.0014573265 659 147
-0.12171672 -0.11051491 0.44898856 0.0014490527 674 150
-0.11877459 -0.10975987 0.44647503 0.0014018012 730 163
-0.11662823 -0.10972618 0.44687131 0.0013839625 740 165
-0.11428712 -0.10950465 0.44648129 0.0013140916 768 171
-0.11212751 -0.10945198 0.44675857 0.0013112337 827 184
-0.10983966 -0.10926971 0.44648668 0.001224722 921 205
-0.10736921 -0.10889515 0.44540781 0.0011768404 951 212
-0.10514312 -0.10875846 0.44528157 0.0012174142 913 204
-0.1030551 -0.10876191 0.44571087 0.0011963154 915 204
-0.1014507 -0.10928649 0.44826019 0.0012662485 848 189
-0.09948273 -0.10943332 0.44924569 0.0012424907 875 195
-0.097684242 -0.10977699 0.45102432 0.0013357019 836 186
-0.095962614 -0.1102241 0.45321456 0.0013346083 775 173
-0.093414888 -0.10972111 0.45148239 0.0013650026 809 180
-0.094033018 -0.11299927 0.4653019 0.0014463479 684 152
-0.092952184 -0.11434259 0.47115251 0.0015656488 599 133
-0.090783112 -0.11437988 0.47161067 0.0015231022 634 141
nan nan nan 0 493 110
nan nan nan 0 353 78
nan nan nan 0 332 74
-0.096616991 -0.13479257 0.5570485 0.002104759 402 89
-0.091772817 -0.13156377 0.54397827 0.0020361331 465 103
-0.08924178 -0.13156199 0.54423046 0.0017747955 508 113
-0.084999263 -0.1289634 0.53372222 0.0016958675 545 121
-0.082430191 -0.12882389 0.53337342 0.0016095681 582 130
-0.080263458 -0.12932405 0.53566152 0.0015636028 606 135
-0.079081453 -0.13149352 0.54485667 0.0017317295 559 124
-0.076934285 -0.13214847 0.54776913 0.0017210701 535 119
-0.074439272 -0.1322303 0.54829603 0.0016736778 520 116
-0.069736384 -0.12825723 0.53199339 0.0017190942 540 120
-0.062534273 -0.11922783 0.4946914 0.0013506243 727 162
-0.059281342 -0.11732721 0.48694494 0.001299961 866 193
-0.058552057 -0.1204685 0.50011712 0.0014278345 735 164
-0.057539944 -0.12326273 0.51184672 0.0016055667 646 144
-0.055560421 -0.12413561 0.51559359 0.0015431561 651 145
-0.052744545 -0.12313435 0.5115487 0.0013726434 747 166
-0.050782315 -0.12412552 0.51577365 0.0013919573 734 164
-0.048574634 -0.12458491 0.51778311 0.001568944 691 154
-0.047517337 -0.12819555 0.53288555 0.0016629042 556 124
nan nan nan 0 443 99
-0.047021162 -0.14154255 0.58855766 0.0019434696 384 85
-0.043517802 -0.13904504 0.57825625 0.0015887509 571 127
-0.040788852 -0.13885687 0.57755083 0.0017358859 507 113
-0.037913591 -0.1381094 0.57451254 0.0017004546 525 117
-0.035067949 -0.13736534 0.57148165 0.0016518887 540 120
-0.032384951 -0.13718905 0.57080698 0.0016589506 574 128
-0.029786589 -0.13737179 0.57162082 0.0016275988 549 122
-0.026542643 -0.13432308 0.55898178 0.0016719128 543 121
-0.022739926 -0.12748444 0.53056306 0.0015199189 650 145
-0.020533094 -0.12902109 0.53699434 0.0017414445 578 129
-0.018866632 -0.1348422 0.5612551 0.0019530406 466 104
-0.016309084 -0.13513483 0.56250161 0.0018386798 501 111
-0.014001658 -0.13800363 0.5744676 0.0018680037 459 102
-0.011464821 -0.13942425 0.58040166 0.0019322075 449 100
-0.0088205254 -0.14000642 0.58284128 0.0019669929 461 103
-0.0061364439 -0.14019109 0.58362192 0.0018029225 481 107
-0.0034299125 -0.13975053 0.58179528 0.0017429583 530 118
-0.00073523965 -0.13835296 0.57598031 0.0016058142 590 131
0.0019290999 -0.13863808 0.57716638 0.0016766535 601 134
0.0045970688 -0.13870187 0.57742673 0.001660302 585 130
0.0072662118 -0.13874123 0.57758135 0.001603024 584 130
0.010006623 -0.1397548 0.58178717 0.0016220865 575 128
0.012763198 -0.14051718 0.5849427 0.0016537431 547 122
0.015340951 -0.13938838 0.58022135 0.0016467556 554 123
0.018025689 -0.13942285 0.58033806 0.0016756894 581 129
0.020537794 -0.13828599 0.5755747 0.0016527106 571 127
0.023125071 -0.13785793 0.57375717 0.0016550695 556 124
0.02573392 -0.13763328 0.57278162 0.0016951865 535 119
0.028274836 -0.13712107 0.57060474 0.0018122121 511 114
0.030772835 -0.13650587 0.56799448 0.0017725088 500 111
0.033020753 -0.13496523 0.56152916 0.001645787 526 117
0.034822639 -0.13195889 0.5489623 0.001610967 591 132
0.036729429 -0.12973143 0.5396325 0.0014645245 693 154
0.03932219 -0.13005614 0.54091418 0.0015862613 660 147
0.041928843 -0.13038519 0.54220772 0.0016407772 567 126
0.045340639 -0.13303959 0.55316305 0.0018022601 486 108
0.048615072 -0.13502894 0.56134391 0.0020389077 420 93
0.051302291 -0.13526826 0.56224084 0.001942165 454 101
0.053754289 -0.13489419 0.56058139 0.001783856 486 108
0.056198403 -0.1345357 0.55897963 0.0016465288 551 123
0.058625676 -0.13417022 0.55734169 0.0015892514 608 135
0.060834747 -0.13335721 0.55383754 0.001455111 669 149
0.063269667 -0.13308504 0.55257219 0.0014752522 654 146
0.064077653 -0.12954491 0.53773344 0.0015547415 613 136
0.064159349 -0.12485632 0.5181278 0.0015504309 622 139
0.066270053 -0.12431204 0.51571739 0.0015152338 632 141
0.06763161 -0.12244934 0.50783092 0.0015427999 681 152
0.06905134 -0.12081371 0.50088137 0.0013899778 730 163
0.070716038 -0.11969925 0.49608654 0.0013414412 775 173
0.072911464 -0.11952505 0.49518028 0.0013173306 802 179
0.07500492 -0.11919944 0.49363708 0.0012878588 833 186
0.077172481 -0.11900745 0.49263707 0.0013339793 810 181
0.079328381 -0.11880904 0.49159989 0.0013173196 805 179
0.081391819 -0.11848713 0.49004087 0.001281517 829 185
0.083612248 -0.11840508 0.48946241 0.001262526 830 185
0.085851356 -0.11835312 0.488996 0.0012979881 839 187
0.088295132 -0.1185787 0.48966298 0.001275703 831 185
0.090367354 -0.1183065 0.48826078 0.0012570675 862 192
0.091983452 -0.11746521 0.48449856 0.0011696487 959 214
0.094089322 -0.11727469 0.48340869 0.0011821155 1005 224
0.096305303 -0.11722711 0.48289394 0.0011118221 1032 230
0.098427318 -0.11706995 0.48191273 0.0011092937 1039 232
0.10082955 -0.11724566 0.48228598 0.001187787 1007 225
0.10296982 -0.11711575 0.48138556 0.0011695945 981 219
0.10520671 -0.1170989 0.48093349 0.0011721947 955 213
0.10752225 -0.1171685 0.48081887 0.001176231 962 214
0.10956204 -0.1169409 0.47946727 0.001163555 962 214
0.11148905 -0.11660453 0.47765347 0.0011420092 993 221
0.11381334 -0.11668872 0.47754458 0.0011766962 1024 228
0.11621775 -0.11685022 0.47773167 0.0011846054 995 222
0.11800604 -0.11639785 0.47539046 0.0011613179 1014 226
0.12062033 -0.1167619 0.47636384 0.0011964588 958 214
0.12347466 -0.11734077 0.47818848 0.0012644104 907 202
0.12598734 -0.11758002 0.47860411 0.0013317044 837 187
0.12806892 -0.11741559 0.47735426 0.0013439633 769 171
0.12791692 -0.11524455 0.46793637 0.0013475809 819 183
0.12773955 -0.11312498 0.45872778 0.0012642958 882 197
0.12866861 -0.11203981 0.45370895 0.001120229 1028 229
0.13049832 -0.11176173 0.4519439 0.0011258646 1070 239
0.13136494 -0.11068125 0.44691965 0.0010429199 1148 255
0.13333789 -0.11055245 0.44572318 0.0010333556 1166 255
0.13541809 -0.11051525 0.44487467 0.0010531819 1210 255
0.13781467 -0.11073339 0.44503042 0.0010925418 1182 255
0.139616 -0.11047389 0.44324455 0.0011184379 1070 239
0.14171048 -0.11045066 0.44238639 0.0010717773 1136 253
0.14369346 -0.11034251 0.44116706 0.0010939231 1146 255
0.14483678 -0.10960208 0.43740463 0.0010060712 1234 255
0.14588751 -0.10881383 0.43344188 0.0010072398 1286 255
0.14762285 -0.10855132 0.43156135 0.0010124755 1291 255
0.14922212 -0.10819744 0.42930341 0.00096614094 1351 255
0.15127639 -0.10817868 0.42836031 0.00096103211 1363 255
0.15369707 -0.10841887 0.42842436 0.00097212015 1318 255
0.15634194 -0.10880868 0.42905948 0.00097766321 1357 255
0.15839668 -0.10878291 0.42803967 0.00094437547 1391 255
0.16057822 -0.10884376 0.42734948 0.00093607517 1421 255
0.16338792 -0.10932334 0.42829037 0.00099912961 1302 255
0.1656138 -0.10940506 0.42766196 0.00099649304 1261 255
0.16703159 -0.1089576 0.42496565 0.0010398132 1237 255
0.16910903 -0.10894622 0.42397514 0.0010167845 1236 255
0.16982087 -0.1080661 0.4196164 0.00099247578 1282 255
0.17244592 -0.10840999 0.4200241 0.00099683856 1275 255
0.17437743 -0.10831491 0.41874239 0.0010555572 1201 255
0.17581038 -0.10791603 0.41630855 0.0010695051 1129 252
0.17680413 -0.10726002 0.41291443 0.0010547914 1156 255
0.17681091 -0.10602729 0.40734306 0.0010609714 1193 255
0.1789562 -0.10609043 0.40679246 0.001080034 1123 250
0.18249756 -0.10697045 0.40940544 0.0013137718 830 185
0.18882321 -0.10944466 0.41814041 0.0016020532 622 139
0.19493955 -0.11174436 0.4262273 0.0017439672 535 119
0.19957152 -0.1131523 0.43094587 0.0018813136 453 101
0.20183997 -0.11320426 0.43055248 0.0019338584 461 103
0.20220736 -0.11220028 0.42621258 0.0018946492 460 102
0.20422758 -0.1121249 0.42547324 0.0018920621 441 98
0.20523268 -0.11149962 0.42272058 0.0018514603 464 103
0.20749493 -0.11156319 0.4226546 0.0020621647 422 94
0.20945546 -0.1114649 0.42205045 0.0022576072 381 85
0.21016884 -0.11071162 0.41904366 0.0021414468 359 80
0.21121651 -0.11014779 0.41683161 0.0022593532 355 79
0.21369322 -0.110333 0.41753057 0.0022900596 310 69
0.21788453 -0.1113911 0.42160922 0.0029471065 230 51
nan nan nan 0 172 38
nan nan nan 0 134 29
0.28065112 -0.13936961 0.52834719 0.0084077772 71 15
-0.17571704 -0.075775638 0.29958552 0.004715764 132 29
-0.17623696 -0.076647885 0.3022953 0.0047736806 133 29
-0.17873444 -0.078402609 0.3084912 0.0052613849 117 26
-0.1891333 -0.083683804 0.32853279 0.0059128474 102 22
-0.19199437 -0.085693091 0.33570263 0.0065746405 94 21
-0.19042456 -0.085742749 0.3352181 0.0067378343 93 20
nan nan nan 0 107 23
-0.15597624 -0.071493931 0.27848402 0.0053371601 132 29
-0.15825686 -0.073197082 0.28464946 0.0076622027 77 17
nan nan nan 0 38 8
nan nan nan 0 78 17
nan nan nan 0 144 32
-0.29677883 -0.14243279 0.55106205 0.0040515587 158 35
-0.29826635 -0.14450639 0.55858886 0.004006024 161 35
-0.29756141 -0.14554739 0.56220895 0.0038835679 168 37
-0.29658228 -0.14647312 0.56547678 0.0041299267 158 35
nan nan nan 0 124 27
nan nan nan 0 128 28
nan nan nan 0 64 14
nan nan nan 0 136 30
nan nan nan 0 154 34
nan nan nan 0 86 19
nan nan nan 0 72 16
nan nan nan 0 84 18
nan nan nan 0 80 17
-0.35490766 -0.19406959 0.75258201 0.0092443777 61 13
nan nan nan 0 74 16
nan nan nan 0 108 24
-0.28057876 -0.1585238 0.61754531 0.0031112831 264 59
nan nan nan 0 172 38
-0.29543421 -0.1706986 0.66739982 0.0056991694 102 22
-0.28580669 -0.16702805 0.65433276 0.0046830545 141 31
nan nan nan 0 128 28
nan nan nan 0 150 33
nan nan nan 0 64 14
nan nan nan 0 197 44
nan nan nan 0 158 35
nan nan nan 0 111 24
-0.25383377 -0.1612781 0.64149386 0.0049328879 135 30
-0.25743413 -0.16562891 0.66027933 0.0069055455 93 20
nan nan nan 0 159 35
nan nan nan 0 76 16
nan nan nan 0 105 23
-0.23840351 -0.1615354 0.64964801 0.0028736615 237 52
-0.22999389 -0.15793535 0.63651896 0.0033500181 212 47
nan nan nan 0 154 34
-0.2265555 -0.15987919 0.6470139 0.0040355674 171 38
nan nan nan 0 133 29
-0.22512667 -0.1633922 0.66383868 0.0070029148 82 18
-0.21707359 -0.15982164 0.65056276 0.0032498443 175 39
-0.20683955 -0.15451723 0.63013053 0.0022222153 370 82
-0.20230733 -0.15337791 0.6266045 0.0024366335 342 76
nan nan nan 0 282 63
nan nan nan 0 273 61
nan nan nan 0 307 68
nan nan nan 0 319 71
-0.13574615 -0.11117777 0.4579162 0.0017155878 498 111
-0.13193738 -0.1098218 0.45299646 0.0016491314 580 129
-0.12822571 -0.108503 0.44819143 0.0014741361 643 143
-0.12515165 -0.10768835 0.44543451 0.0014460107 696 155
-0.12236931 -0.10710106 0.4435885 0.0013014833 790 176
-0.11989844 -0.10677063 0.4427802 0.00133451 791 176
-0.11837205 -0.10728446 0.4454532 0.0012498278 857 191
-0.11557006 -0.10663986 0.44329521 0.0012677108 891 199
-0.1137787 -0.10692122 0.44496468 0.001209019 909 203
-0.11201927 -0.10724372 0.44678849 0.0012370208 875 195
-0.10993578 -0.10726237 0.44732872 0.001232443 911 203
-0.10778677 -0.10721657 0.44758126 0.0011967599 919 205
-0.10556605 -0.10709621 0.44750372 0.0012151906 936 209
-0.10319076 -0.10681096 0.44671783 0.0012180632 943 210
-0.10102297 -0.10673314 0.44678071 0.001216215 879 196
-0.099080987 -0.10689563 0.4478333 0.00128548 907 202
-0.097347453 -0.10729489 0.44986323 0.0012538736 861 192
-0.095515549 -0.10760097 0.45148894 0.0012493184 871 194
-0.093391038 -0.10758381 0.45174375 0.0012616134 840 187
-0.091212615 -0.10750232 0.45171323 0.0013223027 814 181
-0.090232335 -0.10886248 0.45772946 0.001343561 763 170
-0.090753675 -0.11214411 0.47182301 0.0014936953 629 140
-0.089200169 -0.11296115 0.47554386 0.0016832347 616 137
-0.088574134 -0.11502422 0.48450345 0.0015674237 578 129
nan nan nan 0 401 89
-0.098503821 -0.1347824 0.56832486 0.0022245618 341 76
-0.095501199 -0.13427609 0.56646478 0.0022624296 358 80
-0.089245044 -0.12903692 0.54461288 0.00203334 422 94
-0.086394876 -0.12856032 0.54283774 0.0018134161 480 107
-0.082601018 -0.1266086 0.53481722 0.0017241288 521 116
-0.080048561 -0.1264977 0.53455722 0.0016147647 567 126
-0.077604108 -0.12655582 0.53499991 0.0015433156 616 137
-0.075137988 -0.12658128 0.53529388 0.0015350048 608 135
-0.072124533 -0.12565494 0.53155077 0.0015222681 612 136
nan nan nan 0 690 154
-0.061689954 -0.11535639 0.48827833 0.0012532376 843 188
-0.059267569 -0.11504441 0.48709103 0.0012859735 858 191
-0.058579937 -0.11820829 0.50061524 0.0013895094 752 168
-0.057771686 -0.12137941 0.51416898 0.0016518255 608 135
-0.055042174 -0.12061299 0.51103771 0.0014066171 705 157
-0.052663606 -0.12058128 0.51101124 0.0013466913 779 174
-0.050934505 -0.12210356 0.51756448 0.0014386951 725 162
-0.048558913 -0.12214974 0.51785553 0.0015815424 666 148
-0.047554012 -0.12582754 0.53353894 0.0017084205 558 124
nan nan nan 0 409 91
-0.046812404 -0.13820451 0.58619994 0.0018537765 424 94
-0.043519545 -0.13637681 0.57852656 0.0016260892 616 137
-0.040908277 -0.13658556 0.57948494 0.0015676238 587 131
-0.038242545 -0.13662899 0.57973605 0.0017472454 496 110
-0.035256837 -0.13544963 0.57479274 0.0016750873 537 120
-0.032543506 -0.13520978 0.57383031 0.0016851082 564 126
-0.029849444 -0.13501461 0.57305199 0.0016689294 550 122
-0.027147597 -0.13474278 0.57194346 0.0017689845 530 118
nan nan nan 0 565 126
-0.020477165 -0.12619548 0.535734 0.0015214271 631 141
-0.018545484 -0.12999818 0.55190772 0.0018165695 503 112
-0.016279688 -0.13229744 0.56169575 0.00186007 477 106
-0.013931851 -0.13467516 0.57181364 0.0018295028 476 106
-0.011311433 -0.13491379 0.5728457 0.0019894086 452 101
-0.0087925149 -0.13687819 0.58120149 0.0018967108 456 101
-0.0061153015 -0.13702166 0.58182168 0.0018667541 464 103
-0.0034263188 -0.13691968 0.58139557 0.0018217925 504 112
-0.00073975651 -0.1365262 0.57972783 0.001726756 531 118
0.0019318488 -0.13616598 0.57819724 0.0016871459 539 120
0.0046010618 -0.13615294 0.57813722 0.0016532842 582 130
0.0072788605 -0.13631025 0.57879651 0.0017307096 559 124
0.0099578379 -0.13639922 0.57916164 0.0016516297 565 126
0.012653894 -0.13663493 0.5801456 0.0018027533 549 122
0.015324725 -0.13656349 0.57982153 0.0017289625 551 123
0.017965956 -0.13628875 0.57862997 0.0016811859 549 122
0.020531448 -0.13558501 0.57561308 0.001687109 533 119
0.02314873 -0.1353454 0.57456231 0.0017480867 532 118
0.025766557 -0.13515793 0.57372862 0.0017806474 518 115
0.028187862 -0.13407069 0.56907117 0.0017590598 502 112
0.030511709 -0.13274495 0.56339729 0.001683171 521 116
0.032416187 -0.12994649 0.55146968 0.0015728915 599 133
0.034267582 -0.12735854 0.54043251 0.0014678512 667 149
0.036737725 -0.12726557 0.5399785 0.0015065427 657 146
0.039621517 -0.12852627 0.5452621 0.0016372559 578 129
0.042111009 -0.12843363 0.54479814 0.0017472652 542 121
0.045031056 -0.12959048 0.54962766 0.0018206593 479 107
0.04837985 -0.13179171 0.55887842 0.0021436915 422 94
0.051175676 -0.13233978 0.5611102 0.0020749921 409 91
0.053772356 -0.13234481 0.56103235 0.0018787466 454 101
0.056251019 -0.13207227 0.55977088 0.0018787044 520 116
0.058367405 -0.13101056 0.55515802 0.0015915747 591 132
0.060825136 -0.13077225 0.55402762 0.0014742406 664 148
0.062935598 -0.1298368 0.54993659 0.0014519873 667 149
0.064080819 -0.12706019 0.53804255 0.0016182163 616 137
0.064340957 -0.12280207 0.51987398 0.0015340168 616 137
0.066016406 -0.12145501 0.5140267 0.0015903439 623 139
0.067764364 -0.12033049 0.50911522 0.0014728652 655 146
0.06897679 -0.11836267 0.50063044 0.0014252925 696 155
0.070829861 -0.11758652 0.49718007 0.0014350164 731 163
0.072735913 -0.11694446 0.49428889 0.001360669 773 172
0.074819528 -0.11661841 0.49272445 0.0013570095 813 181
0.077104807 -0.11661672 0.49252033 0.0013150806 784 175
0.079367928 -0.11658256 0.49216798 0.0012931953 809 180
0.081092283 -0.11578108 0.48856631 0.0012533099 856 191
0.083499201 -0.11597126 0.48913828 0.0013346456 847 189
0.085664995 -0.11582534 0.4882803 0.0012567255 850 189
0.088215441 -0.1161936 0.48957646 0.0012508411 856 191
0.090349406 -0.11600856 0.48852754 0.0012442356 891 199
0.091915824 -0.11512177 0.4845123 0.0012282928 958 214
0.093961813 -0.11486375 0.48313177 0.0011755015 1008 225
0.096018232 -0.11463025 0.48184109 0.0011246938 1048 234
0.098252319 -0.11461468 0.48145193 0.0011185643 1060 236
0.10093228 -0.11510832 0.48318473 0.0011452223 995 222
0.1027969 -0.11467083 0.48099256 0.0011403734 1002 223
0.10509489 -0.11472517 0.48084792 0.001194405 988 220
0.10734303 -0.11472393 0.48045292 0.0011505669 986 220
0.10921529 -0.11432929 0.47839412 0.0011421365 1009 225
0.11137378 -0.11424411 0.47761372 0.0011336253 1024 228
0.11342067 -0.11405007 0.47636062 0.0010904006 1088 243
0.11570548 -0.11409815 0.47610015 0.0011268009 1034 231
0.11828771 -0.11443214 0.47701147 0.0011727918 974 217
0.12081227 -0.11469893 0.4776198 0.0012440042 938 209
0.12344597 -0.11505771 0.47858766 0.0012847511 899 200
0.12584989 -0.11519328 0.47860348 0.0012946749 825 184
0.12801623 -0.11511046 0.47768995 0.0013447456 763 170
0.1274123 -0.11258265 0.46662134 0.0012481161 843 188
0.12814653 -0.1113032 0.46072441 0.0011567045 967 216
0.12858847 -0.10981697 0.45396453 0.0011709423 1025 229
0.13045481 -0.10957615 0.4523403 0.0011208566 1063 237
0.13144137 -0.10861612 0.44773173 0.0010333488 1181 255
0.13339682 -0.10847457 0.44648114 0.0010415586 1219 255
0.13547781 -0.10843797 0.4456411 0.0010263404 1210 255
0.13767052 -0.1084905 0.4451445 0.0010692814 1129 252
0.13944466 -0.10821663 0.44328746 0.0010858212 1089 243
0.14141372 -0.10809997 0.4420546 0.0010697009 1114 248
0.14325544 -0.10789084 0.44042358 0.0010543619 1146 255
0.14440191 -0.1071718 0.43669587 0.0010503763 1226 255
0.14614512 -0.10690992 0.43481699 0.00098072842 1298 255
0.14778754 -0.10658275 0.43265653 0.0010009794 1309 255
0.14942384 -0.10626037 0.43050063 0.00096979918 1331 255
0.15127151 -0.10609511 0.42896646 0.00094992382 1380 255
0.1536482 -0.10630028 0.42891228 0.00097591028 1336 255
0.15647095 -0.10680448 0.43004248 0.00094847218 1370 255
0.15851372 -0.10676997 0.42898506 0.00094288948 1386 255
0.16070819 -0.10683721 0.42832384 0.00095461792 1429 255
0.16287567 -0.10688502 0.4275735 0.00097819639 1369 255
0.16583365 -0.10744378 0.42885426 0.00097117224 1312 255
0.16764747 -0.10725649 0.42714942 0.0010215214 1230 255
0.169338 -0.10699597 0.42515573 0.0010206111 1213 255
0.17023823 -0.10624858 0.42123905 0.00097658089 1300 255
0.17252432 -0.10637373 0.4207938 0.00096139801 1339 255
0.17473127 -0.10644769 0.42015529 0.0010556213 1227 255
0.17605735 -0.10598963 0.4174358 0.0010639328 1138 254
0.17635311 -0.10492918 0.41237742 0.0010908647 1168 255
0.17697689 -0.10408612 0.40821445 0.0010441258 1250 255
0.17933615 -0.10427133 0.40812013 0.0011002581 1131 252
0.18338996 -0.10542654 0.41184798 0.0013053059 841 187
0.18890487 -0.10738658 0.41873866 0.0015201308 636 142
0.19338584 -0.10872212 0.42321873 0.0018160825 553 123
0.19847319 -0.11036575 0.42893204 0.0018211855 484 108
0.20036259 -0.11021481 0.42772037 0.0018652332 485 108
0.20230389 -0.1100953 0.42669535 0.0017466778 496 110
0.20247351 -0.10902437 0.42205527 0.0017325945 493 110
0.20380026 -0.10859236 0.41996485 0.0018086187 481 107
0.20563905 -0.10843929 0.41902757 0.0019506897 454 101
0.20734189 -0.10821842 0.41790366 0.0018429329 449 100
0.20799142 -0.10745781 0.41477296 0.0018036453 464 103
0.20795231 -0.10636023 0.41042015 0.0019327664 445 99
0.21186355 -0.1072849 0.41394714 0.0020739757 405 90
0.21448588 -0.10754508 0.41498628 0.0024913615 327 73
0.22078863 -0.10962763 0.42313522 0.0030448041 221 49
nan nan nan 0 164 36
0.24991374 -0.1217192 0.47030842 0.0061832229 86 19
-0.17062525 -0.072137266 0.2905975 0.0042569693 150 33
-0.17588384 -0.074994572 0.30138075 0.0047394112 135 30
-0.17924857 -0.077086568 0.30907255 0.0058883186 119 26
-0.18294533 -0.079358861 0.31748164 0.0057689147 105 23
-0.1922036 -0.084104553 0.33576262 0.0061268369 101 22
-0.19130273 -0.084449343 0.33647251 0.0078281211 89 19
-0.18881318 -0.084092706 0.33443049 0.005775216 105 23
-0.16242842 -0.072991699 0.28978217 0.0050580748 121 27
-0.15612051 -0.070793264 0.280608 0.0049328431 135 30
nan nan nan 0 48 10
nan nan nan 0 44 9
nan nan nan 0 105 23
nan nan nan 0 157 35
-0.29729387 -0.1412113 0.55656356 0.0045178309 160 35
-0.29734361 -0.14258938 0.56163663 0.0038570066 168 37
-0.29667807 -0.14364778 0.56554508 0.0038680604 164 36
-0.29604849 -0.14474446 0.56970358 0.0041797007 154 34
nan nan nan 0 146 32
nan nan nan 0 119 26
nan nan nan 0 121 27
-0.30524543 -0.15531538 0.61175805 0.0040308163 155 34
-0.30976412 -0.15923487 0.62760031 0.0055470951 129 28
nan nan nan 0 74 16
nan nan nan 0 105 23
nan nan nan 0 82 18
nan nan nan 0 119 26
nan nan nan 0 115 25
-0.32812619 -0.17976162 0.71374798 0.0082795369 81 18
-0.27895099 -0.15451415 0.61456406 0.0031779786 226 50
-0.273092 -0.15296316 0.60951614 0.006765374 133 29
nan nan nan 0 120 26
nan nan nan 0 132 29
nan nan nan 0 110 24
-0.26015392 -0.15255135 0.61288756 0.00555907 131 29
nan nan nan 0 73 16
nan nan nan 0 93 20
nan nan nan 0 176 39
nan nan nan 0 108 24
nan nan nan 0 166 37
nan nan nan 0 134 29
nan nan nan 0 183 40
nan nan nan 0 87 19
-0.26647216 -0.1746933 0.71610004 0.0064228587 91 20
nan nan nan 0 190 42
-0.2306271 -0.15526518 0.63918275 0.0032123856 260 58
-0.23307195 -0.15905249 0.6561321 0.0049776509 130 29
-0.2436779 -0.16859093 0.69689113 0.0054267836 112 25
nan nan nan 0 138 30
nan nan nan 0 124 27
nan nan nan 0 200 44
nan nan nan 0 292 65
nan nan nan 0 261 58
nan nan nan 0 254 56
nan nan nan 0 302 67
nan nan nan 0 391 87
nan nan nan 0 483 107
-0.13174115 -0.10578218 0.4449411 0.0014872056 637 142
-0.12817213 -0.10459597 0.44058824 0.0013623828 751 167
-0.12581821 -0.10437843 0.44028509 0.0012973809 845 188
-0.12373764 -0.10438416 0.44090065 0.0012779402 836 186
-0.1215676 -0.10431331 0.44117093 0.0012584688 906 202
-0.11916133 -0.10403376 0.44053563 0.001188978 957 213
-0.11711847 -0.10406718 0.44120359 0.0011768244 963 215
-0.11567334 -0.10464253 0.44415185 0.0011610758 976 218
-0.11361296 -0.10467224 0.44476718 0.0011735668 946 211
-0.11183201 -0.10496534 0.44648355 0.0011920376 921 205
-0.10938933 -0.10463668 0.44553605 0.0011822992 930 207
-0.10791388 -0.10523846 0.4485327 0.0012072884 910 203
-0.10587654 -0.10530531 0.44923416 0.0012210129 905 202
-0.10341424 -0.10494363 0.4480885 0.0012373761 942 210
-0.10178237 -0.10542714 0.45053485 0.001244672 900 201
-0.099185109 -0.10490997 0.44868824 0.001195454 944 210
-0.097112849 -0.10493778 0.44915438 0.0011923657 945 211
-0.095428452 -0.10539516 0.45144507 0.0012413221 841 187
-0.09317892 -0.10523497 0.45107612 0.0012579128 879 196
-0.091220297 -0.10540351 0.45210144 0.0012554633 854 190
-0.089664482 -0.10605648 0.45519257 0.0012847114 788 176
-0.087753259 -0.1063105 0.45655993 0.0013066083 816 182
-0.088366337 -0.10971121 0.47143644 0.0014505832 650 145
-0.086973384 -0.11073105 0.47607985 0.0015713177 597 133
-0.086372592 -0.11283912 0.48539576 0.001576939 588 131
nan nan nan 0 419 93
-0.093664564 -0.1291118 0.55592966 0.0020913244 379 84
nan nan nan 0 339 75
-0.086901881 -0.12677942 0.54635805 0.0022189843 398 88
-0.083521225 -0.12550913 0.54109812 0.0018928141 461 103
-0.080010772 -0.12395905 0.53461558 0.0017036676 537 120
-0.077436239 -0.12380619 0.53414506 0.0016826791 579 129
-0.073850513 -0.12197312 0.52641189 0.001572289 640 143
-0.070675619 -0.12071654 0.52115226 0.0014579223 665 148
-0.06424886 -0.11362038 0.49066192 0.0012850488 813 181
-0.061201885 -0.11219995 0.48466241 0.0012246704 887 198
-0.05899705 -0.11227404 0.48510891 0.0013075727 872 194
-0.058662906 -0.11605485 0.50156754 0.0014099694 733 163
-0.057815924 -0.11909078 0.51480609 0.0015834329 600 134
-0.055431899 -0.11908552 0.51489365 0.0014393458 686 153
-0.05266853 -0.11822823 0.5112893 0.0013470814 783 174
-0.050423786 -0.11850928 0.5126003 0.0014608302 742 165
-0.048528425 -0.1196797 0.51775277 0.0015367568 650 145
-0.047476083 -0.12315841 0.53288829 0.001755484 537 120
-0.048989922 -0.13403901 0.58005404 0.0021110645 375 83
-0.046376895 -0.13423437 0.58097994 0.0018189362 453 101
-0.043601476 -0.13395475 0.579844 0.0016031476 578 129
-0.040820751 -0.13362116 0.57846826 0.0014790209 636 142
-0.038291682 -0.13412234 0.58070076 0.0016180946 547 122
-0.03540026 -0.1333342 0.57734567 0.001722583 502 112
-0.032624207 -0.13288762 0.57546377 0.001649389 539 120
-0.029898472 -0.13258494 0.5741998 0.0016518175 545 121
-0.027208779 -0.13239874 0.5734356 0.0017190711 514 114
-0.024280977 -0.13088883 0.56693321 0.0017231628 529 118
-0.020645348 -0.12473746 0.54032058 0.001571883 601 134
-0.018055642 -0.12408312 0.53751361 0.0016047213 595 132
-0.016133908 -0.12854217 0.55685413 0.0017610786 494 110
-0.013899649 -0.13172956 0.57068324 0.0018317947 471 105
-0.011312788 -0.13228452 0.57310498 0.0020089392 460 102
-0.0087276921 -0.13320522 0.57710743 0.0018633939 466 104
-0.0060936259 -0.13385908 0.57995039 0.0019830377 465 103
-0.0034188766 -0.13394366 0.58032328 0.0018152831 482 107
-0.00073957967 -0.13381751 0.57977957 0.0017911628 493 110
0.0019333649 -0.13360107 0.57884103 0.0017781958 496 110
0.0046073259 -0.13366528 0.57911474 0.001873319 507 113
0.007292029 -0.13387953 0.58003497 0.0018692637 509 113
0.0099743064 -0.13394615 0.58031178 0.0017493675 516 115
0.01265732 -0.13399234 0.58049643 0.0017981152 518 115
0.015322991 -0.13387088 0.57995093 0.0017408227 510 113
0.017925641 -0.13331686 0.57752758 0.0017636266 507 113
0.020526413 -0.13289416 0.57566935 0.0017833206 499 111
0.023159212 -0.13275191 0.5750221 0.0018726061 484 108
0.025718248 -0.13225959 0.57285434 0.0018264861 487 108
0.028039651 -0.13075101 0.56628108 0.0018286816 505 112
0.030099783 -0.12838537 0.55599266 0.0017129655 561 125
0.031808563 -0.12501073 0.54133201 0.0015895435 654 146
0.034023356 -0.12397167 0.53678203 0.0015703803 635 141
0.036879733 -0.12525271 0.54227287 0.001668267 566 126
0.039602943 -0.12594733 0.54521883 0.001688803 541 120
0.042315148 -0.12652597 0.54765671 0.0017043379 518 115
0.044985317 -0.1269207 0.54929233 0.00184152 486 108
0.048003625 -0.12820303 0.55476248 0.0019580855 436 97
0.051044509 -0.12941258 0.55990964 0.0019741796 424 94
0.053742964 -0.12967914 0.56096917 0.0019290347 438 97
0.056356456 -0.12972558 0.56106937 0.0019818658 473 105
0.058780111 -0.12935019 0.55933803 0.0018195385 514 114
0.060645994 -0.12783074 0.55265367 0.0016058607 576 128
0.062932678 -0.12728532 0.55017412 0.0015682455 649 145
0.064192005 -0.12478519 0.53924048 0.0016745987 594 132
0.064696677 -0.12106005 0.52301127 0.0017151352 578 129
0.065874413 -0.11881766 0.51318598 0.0016393063 604 134
0.067783564 -0.11800474 0.50952935 0.0014861765 650 145
0.069523752 -0.11696225 0.50487471 0.0015289549 680 151
0.070393018 -0.11457013 0.49438956 0.0013787381 731 163
0.072517365 -0.11430718 0.49308616 0.0013239062 762 170
0.074252523 -0.11346556 0.48927817 0.001298698 808 180
0.076684363 -0.11370692 0.49013063 0.0013236465 847 189
0.079019874 -0.11379562 0.49031353 0.0012782915 846 189
0.081271753 -0.11376232 0.48995939 0.001257489 867 193
0.082725964 -0.11264465 0.48492551 0.00127307 875 195
0.085047871 -0.11273645 0.48508814 0.0012396218 883 197
0.087588802 -0.11310633 0.48643368 0.0012137145 894 199
0.089769058 -0.11300356 0.48573279 0.0011931534 926 206
0.091839552 -0.11277106 0.48446155 0.0012340478 941 210
0.094058923 -0.11272813 0.48399138 0.0011845094 962 214
0.096093766 -0.11247123 0.48258865 0.0011946298 985 220
0.098210618 -0.11231987 0.48162496 0.0011924721 993 221
0.1003917 -0.1122471 0.48098332 0.001130645 1012 226
0.10282848 -0.11245715 0.48153722 0.0011665035 973 217
0.10498957 -0.11236316 0.48077226 0.0011453247 1007 225
0.10710736 -0.11222774 0.47981378 0.0011475717 1012 226
0.10911876 -0.11198869 0.478396 0.0011652728 1004 224
0.1113497 -0.11198003 0.47794524 0.0011173233 1027 229
0.11351827 -0.11191023 0.47721529 0.0011101684 1084 242
0.11564925 -0.1118068 0.47632349 0.0011444455 1018 227
0.11766057 -0.11159379 0.47494659 0.001141072 1011 225
0.12065242 -0.11230138 0.47746548 0.0012049738 936 209
0.12306072 -0.11244986 0.47758299 0.0012376343 875 195
0.12511295 -0.11227349 0.47629964 0.0013284824 808 180
0.12728374 -0.11220787 0.47546571 0.0013854976 797 178
0.1267315 -0.10978558 0.46463653 0.0012407785 861 192
0.12693468 -0.10808906 0.45687851 0.0011856828 983 219
0.12828784 -0.1074122 0.45342112 0.0011193044 1057 236
0.13022071 -0.10723503 0.45205569 0.0010999845 1073 239
0.1314802 -0.10651808 0.44839761 0.0010424247 1178 255
0.13344961 -0.10638991 0.44720042 0.0010301212 1202 255
0.13572396 -0.1065051 0.44700339 0.0010386902 1199 255
0.13845684 -0.10697097 0.44825152 0.0010730716 1123 250
0.14060147 -0.1069751 0.44753847 0.001082249 1117 249
0.14124858 -0.10585681 0.44211453 0.0010792555 1151 255
0.14317031 -0.10571269 0.44074541 0.0010327523 1187 255
0.14477418 -0.10534148 0.43841085 0.0010467427 1217 255
0.14618748 -0.10484424 0.43553647 0.00097998767 1292 255
0.14796545 -0.1046189 0.43377575 0.00096975046 1322 255
0.14953513 -0.10425463 0.43142322 0.00097913144 1323 255
0.15138295 -0.10409163 0.42988819 0.00099023676 1364 255
0.15357238 -0.10416475 0.42931047 0.00094926596 1370 255
0.15610023 -0.10446239 0.42963764 0.00096133939 1375 255
0.15832403 -0.10455139 0.42908782 0.00092997827 1443 255
0.16049226 -0.10460182 0.42836452 0.00093784445 1454 255
0.16355693 -0.10522775 0.42998022 0.00095450919 1427 255
0.16550562 -0.10512888 0.42862025 0.00096272613 1379 255
0.16779424 -0.10524569 0.42813307 0.00098810159 1281 255
0.16988622 -0.10523782 0.42713454 0.00099547941 1262 255
0.1716727 -0.10504321 0.42538041 0.00099782646 1316 255
0.17270872 -0.10439966 0.42182007 0.00098919927 1356 255
0.17492475 -0.10447627 0.42118335 0.0010183159 1263 255
0.1768451 -0.10437652 0.41984907 0.0010798228 1164 255
0.17806391 -0.10386991 0.4169015 0.0010699398 1154 255
0.17939582 -0.10344018 0.41429383 0.0011033958 1142 255
0.18133876 -0.10336854 0.41315278 0.0012186335 1011 225
0.18327804 -0.10329647 0.41204485 0.0012748833 835 186
0.18639979 -0.10388502 0.4136073 0.0014611119 676 151
0.1929515 -0.10635113 0.42266741 0.0016988752 574 128
0.19624878 -0.10698925 0.42449185 0.0016728451 525 117
0.19876014 -0.10718975 0.42463082 0.0016431198 541 120
0.19969997 -0.1065475 0.42149463 0.0015751376 567 126
0.20118737 -0.10620789 0.41962597 0.0016238325 566 126
0.20292267 -0.10600486 0.41836789 0.0016444104 539 120
0.20496574 -0.10596514 0.41782674 0.0016997393 539 120
0.2058069 -0.10531124 0.41493967 0.0016123517 559 124
0.20495391 -0.10381246 0.40880409 0.001633163 538 120
0.20599835 -0.10329516 0.40661299 0.0017798094 538 120
0.20812891 -0.10332737 0.40666115 0.0017581297 487 108
0.21105495 -0.10374998 0.4083215 0.0020564608 412 92
0.21339001 -0.10387669 0.4088929 0.0022590072 352 78
0.22022523 -0.10617048 0.41807279 0.0028923743 251 56
0.22752844 -0.10864391 0.42804372 0.0038492612 164 36
-0.16708146 -0.069226392 0.2842713 0.0046759909 138 30
-0.17248534 -0.072074734 0.2952649 0.004642284 146 32
-0.17637347 -0.074333265 0.3038249 0.0048137261 139 31
-0.17865589 -0.075948365 0.30975404 0.005505302 108 24
-0.18694986 -0.08016967 0.32629955 0.0069649601 97 21
-0.19252582 -0.083289653 0.33834341 0.0062823007 93 20
-0.18875639 -0.08238624 0.33406964 0.0071553788 99 22
-0.18074638 -0.079599082 0.32222861 0.0063754404 109 24
-0.15603676 -0.069340326 0.28027007 0.0051373355 138 30
-0.15559503 -0.069776766 0.28164393 0.0064619337 84 18
nan nan nan 0 32 7
nan nan nan 0 65 14
nan nan nan 0 149 33
nan nan nan 0 169 37
-0.29661956 -0.13939761 0.56013376 0.0043059266 167 37
-0.29782289 -0.14131834 0.56763822 0.0038381759 175 39
-0.29651949 -0.14207555 0.57057035 0.0037787806 173 38
nan nan nan 0 147 32
nan nan nan 0 123 27
nan nan nan 0 110 24
-0.30033597 -0.14976132 0.60210103 0.0045654634 151 33
-0.30415267 -0.15322359 0.61647654 0.0058719255 117 26
nan nan nan 0 100 22
-0.26767933 -0.13768005 0.5550518 0.0045534652 136 30
nan nan nan 0 106 23
nan nan nan 0 134 29
nan nan nan 0 98 21
nan nan nan 0 49 10
nan nan nan 0 181 40
nan nan nan 0 99 22
nan nan nan 0 74 16
nan nan nan 0 117 26
-0.2882168 -0.16370758 0.67051286 0.006423153 82 18
nan nan nan 0 151 33
nan nan nan 0 70 15
-0.29460388 -0.17336367 0.71482915 0.0086876759 64 14
nan nan nan 0 196 43
nan nan nan 0 247 55
nan nan nan 0 185 41
nan nan nan 0 120 26
-0.23820002 -0.14912571 0.62190324 0.0046273046 152 33
nan nan nan 0 85 18
-0.26156825 -0.1680492 0.7039119 0.0066281231 83 18
nan nan nan 0 143 31
nan nan nan 0 189 42
nan nan nan 0 195 43
-0.24304108 -0.16478768 0.69602036 0.0043163053 165 36
-0.23443203 -0.16118059 0.68212211 0.0035614616 167 37
nan nan nan 0 199 44
nan nan nan 0 253 56
-0.19381396 -0.13910925 0.59200382 0.0040213512 179 40
nan nan nan 0 234 52
nan nan nan 0 196 43
nan nan nan 0 345 77
-0.13855433 -0.10563557 0.45255616 0.0015934731 516 115
-0.13207166 -0.10228442 0.43887001 0.0014372604 688 153
-0.12950927 -0.1019105 0.4379113 0.0013364061 804 179
-0.12864456 -0.1028821 0.44271553 0.0014362423 739 165
-0.12547617 -0.10201301 0.43957746 0.0013449914 797 178
-0.12392236 -0.10244942 0.44204041 0.0013334991 773 172
-0.12178078 -0.10240653 0.44241607 0.0012830744 849 189
-0.11921821 -0.10200197 0.44120565 0.0012242961 925 206
-0.118243 -0.10296527 0.44589394 0.0012385219 869 194
-0.11563267 -0.10251382 0.44443795 0.0012148862 909 203
-0.11398655 -0.10291632 0.44666383 0.0012225652 917 204
-0.11201357 -0.10303327 0.4476333 0.0012599062 925 206
-0.10969426 -0.10283002 0.44719237 0.0012283047 977 218
-0.10788776 -0.10310894 0.44882995 0.0011903199 952 212
-0.10651859 -0.10382523 0.45235735 0.0012176061 914 204
-0.10423735 -0.10366355 0.45204383 0.0012290175 882 197
-0.10165833 -0.1031929 0.45036352 0.0011990967 943 210
-0.09954565 -0.10318571 0.45068765 0.0012231701 942 210
-0.097006619 -0.10272674 0.4490208 0.0011865981 953 212
-0.094958901 -0.10277927 0.44957277 0.0012248296 889 198
-0.093076251 -0.10301685 0.45092013 0.0012080506 904 202
-0.090542726 -0.10252839 0.44907406 0.0012853277 859 191
-0.088622876 -0.10272818 0.45022768 0.0012719575 860 192
-0.087526157 -0.10391489 0.45569664 0.0012920242 796 177
-0.085648485 -0.10421033 0.45724753 0.0013315171 774 172
-0.084294513 -0.10517425 0.46172166 0.0014384921 740 165
-0.084819645 -0.10859434 0.47697577 0.0015403582 626 139
-0.084819064 -0.11150678 0.49000138 0.001585545 591 132
nan nan nan 0 452 101
-0.0892554 -0.12399154 0.54534245 0.0020680188 385 86
-0.088107876 -0.12596834 0.55426019 0.0022327737 346 77
-0.085197099 -0.12546723 0.55226547 0.0022311085 395 88
-0.082419328 -0.12513703 0.55101007 0.0020188959 437 97
-0.076934606 -0.12054434 0.530967 0.0018104537 512 114
-0.074456513 -0.12051478 0.5310061 0.0017236319 547 122
-0.070445113 -0.11791663 0.51971412 0.0015959397 622 139
-0.064072862 -0.11104318 0.4895575 0.0013754312 783 174
-0.061240669 -0.11002588 0.48520085 0.0012769294 855 191
-0.059626173 -0.11120211 0.49050951 0.0012819591 827 184
-0.058890089 -0.11417446 0.50373739 0.0014400501 692 154
-0.057872206 -0.11682285 0.51553404 0.0016945455 595 132
-0.055627298 -0.11711544 0.5169301 0.0015869527 612 136
-0.053039964 -0.11668102 0.51511008 0.0014591147 718 160
-0.05058023 -0.11649968 0.51440018 0.0015143208 694 155
-0.049754061 -0.12024853 0.53104007 0.0017695599 584 130
-0.050366927 -0.12804472 0.56555545 0.0021744468 387 86
-0.048904981 -0.13113077 0.57926762 0.0022793903 368 82
-0.046333592 -0.13142711 0.58065218 0.0018313268 482 107
