# .PCD v0.7 - Point Cloud Data file format
VERSION 0.7
FIELDS x y z noise intensity gray
SIZE 4 4 4 4 2 1
TYPE F F F F U U
COUNT 1 1 1 1 1 1
WIDTH 870
HEIGHT 1
VIEWPOINT 0 0 0 1 0 0 0
POINTS 870
DATA ascii
0.048184577 0.078718461 0.28009829 0.0021703506 365 83
0.04936504 0.078509137 0.27916786 0.0021618668 373 85
0.050778937 0.078672282 0.27955362 0.0024909093 336 77
0.052198395 0.078835607 0.2799305 0.0023730893 346 79
0.053499315 0.078816287 0.27964956 0.0024707054 321 73
0.054706972 0.078663774 0.27888733 0.0022817024 342 78
0.056189366 0.078904219 0.27950856 0.0024602928 324 74
0.057303768 0.078628719 0.27829254 0.0022873709 340 78
0.058318406 0.078231715 0.27663875 0.0022498954 370 84
0.059600253 0.078202672 0.27627733 0.0022338291 356 81
0.061129022 0.078491949 0.27702925 0.0023955079 349 80
0.062579095 0.078670152 0.27737686 0.0025399115 338 77
0.063781895 0.078536585 0.27661422 0.0022713705 350 80
0.064836308 0.078229338 0.27523044 0.0021708265 370 84
0.065644011 0.077642418 0.27285498 0.0021773959 377 86
0.067019947 0.077737272 0.27286607 0.0024439478 353 81
0.068356127 0.077783301 0.27269357 0.0024596546 335 76
0.069519795 0.07763496 0.27182838 0.0022662953 363 83
0.070831232 0.077654049 0.27153814 0.0021820462 359 82
0.072122268 0.077650487 0.27115664 0.002261715 390 89
0.073550463 0.077792138 0.27126938 0.0022012449 358 82
0.075056806 0.078010067 0.27163419 0.0022435628 365 83
0.07614959 0.077798091 0.27048984 0.002400418 350 80
0.077092841 0.077442981 0.2688387 0.0020538238 397 91
0.077970609 0.077034876 0.2669957 0.0022307818 388 89
0.078808814 0.076601557 0.26505819 0.0022907027 378 86
0.08004155 0.076559395 0.26446524 0.0022515454 383 87
0.081320345 0.076561943 0.26401567 0.0021555873 388 89
0.082731292 0.076686896 0.26397648 0.0021924011 403 92
0.08393418 0.07661812 0.26325959 0.0020725669 423 97
0.085211933 0.076618738 0.26277149 0.0019935016 410 94
0.08640559 0.076544829 0.26201898 0.0020913971 390 89
0.087462977 0.076354094 0.2608597 0.0020536499 398 91
0.08885356 0.076455556 0.26069158 0.0021393837 399 91
0.090294898 0.076597199 0.26065227 0.0021692943 401 92
0.09155558 0.076583773 0.260079 0.0020798407 387 88
0.092573859 0.076370761 0.25882539 0.0023112169 390 89
0.093413129 0.076017827 0.25709906 0.0020344774 400 91
0.094400503 0.075793266 0.25581008 0.0022423298 378 86
0.095417216 0.075597867 0.25462353 0.0021073238 385 88
0.09667778 0.075598247 0.25410089 0.0022245031 355 81
0.098951086 0.076380357 0.25620565 0.0024331789 349 80
0.10008115 0.076271348 0.25532436 0.0024332593 342 78
0.10086896 0.075907499 0.25360337 0.0022613883 355 81
0.10140479 0.075365402 0.25130552 0.0022237306 355 81
0.10216057 0.074998036 0.24961138 0.0024027876 335 76
0.10307226 0.074752621 0.24834496 0.0023583807 324 74
0.10574905 0.075777918 0.25131634 0.0025295382 310 71
0.10661662 0.075497858 0.24997778 0.0030182658 248 56
0.10586522 0.074091248 0.24494405 0.0024035294 318 72
0.10789545 0.074641429 0.24641214 0.002484306 296 67
0.10949484 0.07488437 0.24689311 0.0025430652 283 64
0.11026441 0.074560754 0.24553925 0.0028483386 281 64
0.11117954 0.074341655 0.24456631 0.0030252598 256 58
0.11243326 0.074351303 0.24438296 0.0029060668 267 61
0.11190608 0.07319589 0.24041055 0.0027369291 260 59
0.11308804 0.073171251 0.24019314 0.002871715 243 55
0.11455774 0.073331326 0.24062091 0.0031726528 234 53
0.11571838 0.073292278 0.24043466 0.003281852 232 53
0.11665367 0.073112808 0.23982769 0.0030559092 225 51
0.1171307 0.072652802 0.23834011 0.0032175316 215 49
0.11711152 0.071897574 0.23592263 0.0031779669 221 50
0.11793752 0.071671262 0.23527828 0.0033417551 208 47
0.11873536 0.071432561 0.23463021 0.0033233885 202 46
0.119797 0.071355723 0.23455016 0.0033649323 195 44
0.12074596 0.071213938 0.23429215 0.0036898497 177 40
0.12167603 0.071063876 0.23404106 0.0038345954 172 39
0.12226914 0.070721813 0.23318978 0.0041096411 173 39
0.12284347 0.070375517 0.23235455 0.0040863212 154 35
-0.12852947 0.066282392 0.22183323 0.0039602504 163 37
-0.12731181 0.066214278 0.22102709 0.0040896283 161 36
-0.12780212 0.067040928 0.22320662 0.0041629937 150 34
-0.12772354 0.067580923 0.22443177 0.0041696029 155 35
-0.12731905 0.06795641 0.22511864 0.0042641936 151 34
-0.12670277 0.068224482 0.22546257 0.0044945683 151 34
-0.12621309 0.068566091 0.22606485 0.004012967 157 36
-0.12589695 0.069008999 0.22701643 0.0042696064 144 33
-0.12715605 0.070331208 0.23087071 0.0040635853 157 36
-0.12759365 0.071219049 0.23330811 0.0047181514 147 33
-0.12722981 0.071671851 0.23433696 0.0040691406 162 37
-0.12533402 0.071262062 0.23257186 0.0042984276 159 36
-0.12424217 0.07130596 0.23231731 0.0041753957 176 40
-0.12445731 0.072107919 0.23455697 0.0047133728 153 35
-0.12483338 0.0730194 0.23717466 0.0037966322 175 40
-0.12370326 0.073058985 0.23698756 0.0035663659 185 42
-0.1214059 0.072403222 0.23458013 0.0035165278 189 43
-0.12135366 0.073086679 0.23654541 0.0035052423 190 43
-0.11995089 0.072962269 0.23592895 0.0038936588 185 42
-0.11863341 0.072887763 0.23551017 0.0035488147 189 43
-0.11839786 0.073483229 0.23729174 0.0033656904 203 46
-0.11771591 0.073811032 0.23824494 0.0033566291 204 46
-0.11608804 0.073546372 0.23732384 0.0033177277 204 46
-0.11503101 0.073641598 0.23760282 0.0031031121 230 52
-0.11563831 0.074815623 0.24140154 0.0030207885 222 50
-0.11508594 0.075256512 0.24287459 0.0031526973 251 57
-0.11465175 0.075785071 0.24467097 0.0028939007 243 55
-0.11373215 0.076000839 0.24549773 0.0028488017 244 56
-0.11267907 0.076131195 0.24608797 0.0029247007 252 57
-0.11136269 0.076084584 0.24614386 0.0027723869 255 58
-0.11069687 0.076486416 0.24768804 0.0028821335 247 56
-0.10912775 0.076266177 0.24725311 0.0030571949 233 53
-0.10757672 0.076053619 0.24687432 0.0025821298 286 65
-0.10670298 0.076320514 0.248083 0.0027174242 268 61
-0.10602922 0.076738492 0.24981467 0.0028438331 261 59
-0.1048592 0.076803006 0.25042433 0.002584053 286 65
-0.10409594 0.077170648 0.25204861 0.002866921 271 62
-0.10332214 0.077539422 0.25370198 0.0025684179 283 64
-0.101358 0.077012956 0.25244385 0.0025690487 291 66
-0.099686764 0.076698557 0.25189155 0.0027129871 291 66
-0.098840795 0.0770192 0.25343803 0.0026390185 296 67
-0.09832295 0.07760714 0.25588062 0.0024383166 310 71
-0.09742222 0.077904314 0.25737861 0.0023527595 334 76
-0.095903195 0.077708386 0.25725397 0.0024943256 320 73
-0.094356589 0.077484533 0.25703773 0.002326515 335 76
-0.093004726 0.077416681 0.25733864 0.0024618353 319 73
-0.092062108 0.077692308 0.25878236 0.0025459561 319 73
-0.091468595 0.078274414 0.26125079 0.0024500589 302 69
-0.089804761 0.077944145 0.26067221 0.0024483625 320 73
-0.088642865 0.07804627 0.26153311 0.0024032653 309 70
-0.087799199 0.078435682 0.26335385 0.0025709022 306 70
-0.086906053 0.07879179 0.26506037 0.0025882209 302 69
-0.085122705 0.07833939 0.26403812 0.0024776533 309 70
-0.08344344 0.0779704 0.26328281 0.0025491051 291 66
-0.081973098 0.077788167 0.26314503 0.0024946579 302 69
-0.080713943 0.077803738 0.2636652 0.0024406617 313 71
-0.079224251 0.077594027 0.26341012 0.0024892963 292 67
-0.07810726 0.07774847 0.26437983 0.002650382 280 64
-0.077643342 0.078568883 0.26760837 0.0026880354 277 63
-0.076251574 0.078462243 0.2676717 0.0025742287 292 67
-0.075437889 0.078956969 0.26977685 0.0026580314 285 65
-0.074086219 0.07889609 0.26997396 0.0029182469 270 61
-0.073357575 0.079508282 0.27246502 0.0029634184 259 59
-0.072079204 0.079536028 0.27294442 0.0027877686 258 59
-0.070880286 0.079654105 0.27372244 0.0027848461 266 61
-0.069598384 0.079681598 0.27417791 0.0027506782 264 60
-0.068042606 0.079390585 0.27352437 0.0027636704 268 61
-0.066633441 0.079262622 0.27341917 0.0028217991 281 64
-0.065295666 0.07921619 0.27358297 0.0028802282 259 59
-0.064368702 0.07967636 0.27548674 0.0029217997 255 58
-0.062793992 0.079337217 0.27461609 0.0026193622 285 65
-0.06164353 0.079531081 0.27557889 0.0026969987 270 61
-0.060433462 0.079654746 0.27628887 0.0027980544 265 60
-0.059231449 0.079794742 0.27704585 0.0031388155 243 55
-0.058269899 0.080272309 0.27896655 0.0029696808 249 57
-0.057151906 0.080551445 0.28019002 0.0030231406 248 56
-0.055996623 0.080789998 0.28126392 0.0027746365 266 61
-0.054567821 0.080635928 0.28096145 0.003077022 253 58
-0.05303156 0.080311462 0.28005451 0.0026847101 274 62
-0.051588003 0.080114447 0.27958137 0.0031651238 250 57
-0.050189432 0.079978831 0.2793127 0.0027540892 267 61
-0.0488609 0.079950526 0.27940977 0.0031703014 255 58
-0.047759451 0.080302492 0.28082809 0.0028403848 265 60
-0.047174327 0.081567153 0.28543371 0.0030614112 258 59
-0.045495953 0.080960169 0.28348321 0.0027513443 264 60
-0.044249456 0.081108339 0.284168 0.0030474651 254 58
-0.043150567 0.081544623 0.28585592 0.0029470301 249 57
-0.041716535 0.081355207 0.28534353 0.0029735269 236 54
-0.040121477 0.080828868 0.28364092 0.0028340789 254 58
-0.038767442 0.080768757 0.28356645 0.0027216605 272 62
-0.037734326 0.081396632 0.28590167 0.0027903239 261 59
-0.036589231 0.081820145 0.28751418 0.0030172796 242 55
-0.035189036 0.081683725 0.28715315 0.0030803378 249 57
-0.033785407 0.081528217 0.28671855 0.0027792929 279 64
-0.032639712 0.082007982 0.28851253 0.0026165973 280 64
-0.031279426 0.081966624 0.28846794 0.0029033476 282 64
-0.029651623 0.081189066 0.28582579 0.002511627 320 73
-0.028225591 0.080916859 0.28495619 0.002528586 307 70
-0.026940266 0.081041075 0.28547725 0.0026121489 299 68
-0.025689093 0.081286252 0.28641975 0.00250698 305 70
-0.024281787 0.081037156 0.28561577 0.002488693 303 69
-0.022814408 0.080547169 0.28395727 0.0022351337 365 83
-0.021604201 0.080960691 0.28547931 0.0021565573 375 86
-0.020414153 0.081508845 0.28747231 0.0023519113 349 80
-0.019027174 0.081292413 0.28676456 0.0021162007 381 87
-0.017461527 0.080222555 0.28304124 0.0019467318 456 104
-0.016172573 0.080353126 0.2835485 0.0017842884 504 115
-0.014753091 0.079800799 0.28164175 0.0016380575 571 131
-0.013488113 0.080058046 0.28258818 0.0019731524 462 106
-0.012266831 0.080658086 0.28474113 0.0023505886 320 73
-0.011042869 0.081383355 0.28733289 0.0027222442 267 61
-0.0097638825 0.081846736 0.28899679 0.0027163902 270 61
-0.0084754685 0.082366176 0.29085514 0.0031710144 249 57
-0.0071004815 0.08208169 0.28987107 0.0028095816 260 59
-0.0057423203 0.081904143 0.28926098 0.0031900348 239 54
-0.0044117258 0.082131431 0.29007706 0.0033083665 227 52
-0.0030744227 0.082378656 0.29095998 0.0032161337 220 50
-0.0017334213 0.082836539 0.29258355 0.0032438524 234 53
-0.00037581837 0.082943998 0.29296586 0.0032769877 234 53
0.00098041561 0.082639068 0.29188803 0.0027863723 274 62
0.0023301207 0.082456917 0.29124036 0.0030100329 256 58
0.0036734971 0.0822668 0.29056102 0.002737069 269 61
0.0050320867 0.082428001 0.29111892 0.0027434886 293 67
0.0064039989 0.082692966 0.29203969 0.0026161033 290 66
0.0077334084 0.082412407 0.29103029 0.0024488242 324 74
0.0090380348 0.08199048 0.28951815 0.0024353543 309 70
0.010387903 0.082035094 0.28964987 0.0026845136 301 69
0.011710075 0.081875838 0.28905794 0.0027352797 271 62
0.013029519 0.081732213 0.28851771 0.0026077079 286 65
0.014439922 0.082132742 0.28989428 0.002856801 263 60
0.015776014 0.08207833 0.2896609 0.0030454774 262 60
0.017044326 0.081707552 0.28830728 0.0028750226 268 61
0.018300237 0.081335679 0.28694609 0.002754271 262 60
0.019719282 0.081690125 0.2881431 0.0027779446 258 59
0.021152508 0.082054503 0.28937024 0.0030290217 269 61
0.022377245 0.081614919 0.28775781 0.0029378466 267 61
0.023684157 0.081507705 0.2873131 0.0026340755 286 65
0.025008965 0.081470251 0.28710964 0.0026324675 280 64
0.026252035 0.081183828 0.28602427 0.002740124 301 69
0.027389277 0.080613568 0.28393477 0.0025079669 330 75
0.028448308 0.079876207 0.28125298 0.0017950493 501 114
0.029577632 0.079392433 0.27946016 0.0018726167 474 108
0.030981837 0.079656169 0.28029349 0.0018396814 472 108
0.032412142 0.079962961 0.28127211 0.0018199402 467 107
0.033907328 0.080399759 0.28270131 0.0018657659 462 106
0.035115976 0.080149844 0.28170973 0.0017381172 517 118
0.036461242 0.080218546 0.28183216 0.0018447286 455 104
0.037777111 0.080220021 0.28171203 0.0018833927 482 110
0.039091073 0.08021751 0.28157133 0.0019504557 428 98
0.040481415 0.080366775 0.28195637 0.0020192107 410 94
0.041812684 0.080393068 0.28190276 0.0020141746 419 96
0.043343652 0.080789953 0.28314081 0.0020250843 415 95
0.044634212 0.080728523 0.28276438 0.0020199113 396 90
0.04586684 0.080568835 0.28203669 0.0021526623 373 85
0.046959985 0.080179952 0.28049999 0.0022087337 379 86
0.04798723 0.079702787 0.27864826 0.002093802 377 86
0.049315307 0.079737328 0.27857834 0.002434914 341 78
0.050771773 0.079972319 0.27919951 0.0021841929 367 84
0.052115746 0.080022737 0.27916691 0.0023252238 327 75
0.053458728 0.080069222 0.27911121 0.0023157168 340 78
0.054563448 0.079765134 0.27782503 0.0025115472 337 77
0.055646114 0.079443827 0.27647117 0.002364231 354 81
0.05718657 0.07977581 0.27738103 0.0023428518 328 75
0.058371596 0.079608232 0.27654347 0.0023085319 340 78
0.059699614 0.079638712 0.2763842 0.0023646273 338 77
0.061058275 0.079707906 0.27634859 0.0022905648 341 78
0.062256277 0.079568848 0.27558056 0.0022243955 355 81
0.063796438 0.079863839 0.27630436 0.0022948852 341 78
0.064783216 0.079468146 0.27462792 0.0024209102 343 78
0.065558396 0.078833602 0.2721189 0.0022795955 342 78
0.066664115 0.0786134 0.27103215 0.0024809698 346 79
0.068089947 0.078771867 0.27123979 0.0023030965 358 82
0.069552787 0.078966446 0.27155855 0.002159318 372 85
0.070658699 0.078756087 0.27047306 0.0022262463 363 83
0.071547791 0.078315958 0.26858965 0.0022751561 376 86
0.072917201 0.078407831 0.26852062 0.0024052479 367 84
0.074347451 0.078560799 0.26864767 0.0021492385 399 91
0.075552002 0.078474134 0.26794305 0.0021565598 376 86
0.076711684 0.078344531 0.26708108 0.0021441919 373 85
0.077634424 0.077981211 0.26541343 0.0021718454 384 88
0.078612939 0.077684797 0.26396567 0.002037097 410 94
0.079987407 0.077782862 0.26384825 0.0020427513 403 92
0.081418008 0.077931561 0.26389027 0.0021649937 377 86
0.082603768 0.07784494 0.26312456 0.0020796813 384 88
0.083751313 0.077725492 0.26223925 0.002234298 399 91
0.08499065 0.077693529 0.26164073 0.0021361511 377 86
0.086135887 0.07757777 0.26075238 0.0020804959 401 92
0.087282583 0.077466682 0.25987333 0.0020374069 396 90
0.088689372 0.077586301 0.25976154 0.0021951769 379 86
0.09003976 0.077653877 0.25946862 0.0022427484 384 88
0.091092251 0.077466264 0.25831947 0.0022211291 369 84
0.092105612 0.07725098 0.2570779 0.0021132121 376 86
0.093247339 0.07714773 0.25621012 0.002036914 401 92
0.094627872 0.077242181 0.25599951 0.0021145018 382 87
0.095639057 0.077036634 0.25479782 0.0022514185 370 84
0.096787915 0.076945886 0.25398242 0.0022276763 353 81
0.098588355 0.077368826 0.25486726 0.0024948088 335 76
0.10003775 0.077509023 0.25482628 0.0024469516 316 72
0.10083741 0.077148601 0.25315261 0.0022495121 350 80
0.10156621 0.076743565 0.25135171 0.0023182195 355 81
0.10231476 0.076363198 0.24965331 0.0024161385 346 79
0.10329559 0.076163277 0.24856786 0.0023210032 326 74
0.10450884 0.076137468 0.24807404 0.0025780941 317 72
0.10605703 0.076353386 0.24839161 0.002898206 247 56
0.10618721 0.075555332 0.24544053 0.0024569822 305 70
0.10764281 0.075707875 0.24560995 0.0028132093 290 66
0.10929777 0.07599555 0.24624752 0.00272282 274 62
0.10936755 0.075186975 0.2433683 0.0028081168 289 66
0.11046004 0.075091675 0.24283595 0.0026822786 282 64
0.1113096 0.074835151 0.24181961 0.0030218733 259 59
0.1117224 0.074293785 0.23992203 0.002840623 246 56
0.11286467 0.07424394 0.23965096 0.0030981502 236 54
0.11432549 0.074402481 0.2400912 0.0031962432 218 50
0.11527407 0.074227825 0.23949534 0.003175318 214 49
0.11577742 0.073773116 0.23803507 0.0033551841 199 45
0.11591598 0.07309778 0.2359013 0.003244285 208 47
0.11627126 0.072571523 0.23428583 0.0032462638 209 47
0.1170665 0.072327748 0.23361869 0.0036123903 201 46
0.11804451 0.072200663 0.23336442 0.0035542313 192 44
0.11915316 0.0721552 0.23340949 0.003953435 166 38
0.12058767 0.072306022 0.23412482 0.0038642392 174 39
0.12180588 0.072325483 0.23444937 0.003872436 167 38
0.12226145 0.071896091 0.23335041 0.0045738998 163 37
0.11924665 0.069453619 0.22573671 0.0043738028 156 35
-0.12468276 0.065352812 0.21548437 0.0043897317 158 36
-0.1270148 0.067142844 0.22081307 0.0042057144 157 36
-0.12717758 0.067807086 0.22241925 0.0038545865 174 39
-0.12712665 0.068367884 0.22368461 0.0044474173 143 32
-0.1268205 0.068800084 0.22453456 0.0040024356 153 35
-0.12617667 0.06905508 0.2248175 0.0042449841 149 34
-0.12576608 0.069443412 0.2255484 0.0045849499 141 32
-0.12541421 0.069871441 0.22642255 0.0039931117 152 34
-0.12576219 0.070700675 0.22860959 0.0040516984 163 37
-0.12755844 0.072366707 0.23350836 0.004037193 163 37
-0.12572186 0.071983501 0.23181076 0.0042580748 168 38
-0.12477095 0.07210499 0.23176569 0.0043255608 166 38
-0.12397505 0.07231918 0.23204345 0.0039967326 163 37
-0.12319167 0.072544813 0.2323833 0.0036782068 181 41
-0.12379012 0.073596291 0.23539132 0.0041027726 185 42
-0.12341518 0.074083835 0.23661879 0.0040752417 169 38
-0.12253593 0.074275233 0.23692918 0.0038533392 182 41
-0.12138994 0.074307121 0.23676284 0.0036353937 195 44
-0.12004578 0.074217133 0.23624225 0.0032435611 208 47
-0.11922032 0.074449241 0.23678137 0.0037564663 190 43
-0.11944702 0.0753498 0.23947971 0.0035114165 188 43
-0.11827344 0.075376466 0.23943555 0.0035875987 183 42
-0.11653118 0.075037494 0.23826802 0.0033817752 210 48
-0.11544147 0.075116016 0.23846446 0.0031911877 214 49
-0.11578833 0.076140873 0.24170327 0.0034019768 201 46
-0.11622612 0.077248134 0.24524277 0.0031156882 222 50
-0.11512856 0.07734789 0.24562366 0.0031930443 230 52
-0.11383855 0.077319123 0.24563566 0.0029074913 242 55
-0.11258081 0.077311873 0.24575454 0.0032289526 242 55
-0.1116473 0.077529609 0.24662681 0.0030154977 230 52
-0.11031272 0.077470623 0.24665585 0.0029273601 241 55
-0.10872485 0.077230349 0.24614213 0.0026092147 278 63
-0.10757926 0.077302337 0.24665658 0.0029110229 266 61
-0.10672314 0.077586435 0.247881 0.0027089263 262 60
-0.1057331 0.077778757 0.24884394 0.0029966054 264 60
-0.10439625 0.077717535 0.24902378 0.0027447916 259 59
-0.10309532 0.077681884 0.24931005 0.0027239397 261 59
-0.10365883 0.079067484 0.25418761 0.0026099 292 67
-0.10180925 0.078624047 0.25321048 0.0026682906 271 62
-0.099458799 0.077777751 0.2509459 0.0025782874 287 65
-0.099004425 0.078411512 0.25347018 0.0026756395 289 66
-0.098984294 0.079410039 0.2571961 0.0024601687 310 71
-0.09732189 0.07909999 0.25669783 0.0023431347 329 75
-0.095707916 0.07882157 0.25630593 0.0024019722 318 72
-0.094100162 0.078540847 0.25590804 0.0024752165 299 68
-0.092691191 0.078420654 0.25603363 0.0025339648 311 71
-0.091561966 0.078537069 0.2569328 0.0024597994 309 70
-0.090775363 0.078954749 0.25882035 0.0024120153 315 72
-0.089850523 0.079262398 0.2603496 0.0025277578 306 70
-0.088666663 0.079347119 0.26114538 0.0025805964 289 66
-0.087822728 0.079742961 0.26296306 0.0025952463 295 67
-0.086792529 0.079978958 0.26425123 0.0024617524 306 70
-0.085273258 0.079764575 0.2640442 0.0026288037 279 64
-0.083535761 0.079336382 0.26311705 0.0026550812 281 64
-0.082099393 0.079185285 0.26309642 0.0024425839 315 72
-0.080961734 0.079322085 0.26402256 0.0025625927 286 65
-0.07966847 0.079308391 0.26443833 0.0025772383 284 65
-0.078877069 0.079801969 0.26653773 0.0025147088 294 67
-0.077251196 0.079453677 0.26581508 0.0024505788 307 70
-0.076216184 0.079711601 0.2671088 0.0026858805 302 69
-0.074945137 0.07972727 0.26758078 0.0026951062 270 61
-0.073920898 0.08001063 0.2689411 0.0027207895 270 61
-0.073095314 0.080522887 0.27106312 0.0029232607 258 59
-0.072200738 0.080976307 0.27297992 0.0028093278 256 58
-0.070605882 0.080646589 0.2722455 0.0028677483 250 57
-0.069409631 0.080768324 0.27302217 0.0028716966 274 62
-0.068159759 0.080831103 0.27358881 0.0029434902 266 61
-0.066652633 0.080585331 0.27309862 0.0029380731 268 61
-0.06559252 0.080880962 0.27443197 0.0029019681 244 56
-0.064252414 0.080836341 0.27460051 0.0028830378 251 57
-0.062813826 0.08066342 0.27432123 0.0028983988 262 60
-0.061497819 0.080643892 0.27455193 0.0031920148 242 55
-0.060393419 0.080907024 0.27573508 0.0027648478 261 59
-0.059197117 0.081055947 0.27651986 0.0026930338 270 61
-0.057945054 0.081133507 0.27705157 0.0028025198 255 58
-0.056865416 0.081461668 0.27843016 0.0030885998 248 56
-0.055769898 0.081782065 0.27977431 0.0027895027 251 57
-0.054381218 0.081677675 0.27965611 0.0033320421 237 54
-0.05296522 0.081526048 0.27936593 0.0031731005 240 55
-0.051651448 0.081528053 0.2795926 0.0032667054 242 55
-0.050345924 0.081543535 0.27985647 0.0029923168 253 58
-0.048851021 0.081244864 0.27903274 0.0030370627 255 58
-0.047593892 0.081336096 0.27953902 0.0027031312 277 63
-0.04664918 0.081981525 0.28194344 0.0027311551 263 60
-0.045488223 0.082273521 0.28312626 0.0030366655 261 59
-0.044206668 0.082358375 0.28358915 0.0027494105 261 59
-0.043008622 0.082608886 0.28461549 0.0030414234 261 59
-0.041551627 0.082362138 0.28392112 0.0030939381 255 58
-0.040266331 0.082450666 0.28437498 0.0029354328 245 56
-0.038822144 0.082208782 0.2836819 0.0028935 247 56
-0.037570518 0.082371973 0.28437963 0.0029011157 244 56
-0.036473636 0.082898833 0.28632742 0.002858643 251 57
-0.035076208 0.082756706 0.28595868 0.0028520222 252 57
-0.033596341 0.082401142 0.28484547 0.0026670888 270 61
-0.032385558 0.082703449 0.28600025 0.0028175942 269 61
-0.031253085 0.083240286 0.28796124 0.0028125334 266 61
-0.029670497 0.082572669 0.28574973 0.0024625445 312 71
-0.028183827 0.082121782 0.28428137 0.0024771341 308 70
-0.026823236 0.082011908 0.28398749 0.0025983783 318 72
-0.025640747 0.082463421 0.28563279 0.0026868545 313 71
-0.024461154 0.082974173 0.2874791 0.0022778502 347 79
-0.022777112 0.081733882 0.28325304 0.0022269303 367 84
-0.021600593 0.082274273 0.28519267 0.002238933 346 79
-0.020334134 0.082520425 0.28610834 0.0021625613 385 88
-0.01894347 0.082261704 0.28526902 0.0020233612 460 105
-0.017561685 0.082005471 0.28443354 0.001816006 483 110
-0.016047727 0.081040025 0.2811332 0.0016510831 564 129
-0.014720906 0.080932163 0.28080308 0.0016590247 539 123
-0.013437874 0.08106751 0.2813127 0.0018852846 485 111
-0.012350046 0.082536593 0.28644735 0.0022576835 339 77
-0.011067092 0.082899071 0.28773823 0.0026343118 281 64
-0.0097631477 0.083182335 0.28875053 0.0028991092 265 60
-0.0084207449 0.083176002 0.28875381 0.0030522712 261 59
-0.0071301912 0.083776459 0.29085991 0.0030279632 255 58
-0.005775677 0.083730519 0.29071814 0.0029872432 236 54
-0.0044255676 0.083739869 0.2907646 0.0030739866 228 52
-0.0030751997 0.083750397 0.29081142 0.0031034888 229 52
-0.0017283862 0.083950058 0.29151133 0.0034378087 228 52
-0.00037368716 0.083825767 0.29108259 0.0029030282 250 57
0.00097813422 0.083798468 0.29098698 0.0028480061 247 56
0.0023235059 0.083570875 0.29019216 0.0028499039 253 58
0.0036893613 0.083976641 0.29159287 0.0027745436 266 61
0.0050402749 0.083915703 0.29136935 0.0028736687 298 68
0.0063826512 0.083768524 0.29084259 0.0025567254 303 69
0.0077399816 0.083834745 0.29105306 0.0025040682 322 73
0.0090147611 0.083120115 0.28854895 0.0025353739 337 77
0.010324151 0.082868345 0.28764808 0.0023897376 318 72
0.01169467 0.083108708 0.28845158 0.0027290985 295 67
0.012935195 0.082470827 0.28620312 0.0025084065 302 69
0.014488451 0.083759852 0.2906374 0.0027278163 270 61
0.015844498 0.08378613 0.29068533 0.0030419517 247 56
0.016970642 0.082688101 0.28682896 0.0029863687 259 59
0.018264839 0.082509257 0.28615755 0.0028229312 256 58
0.019548453 0.082310118 0.28541163 0.0028739376 270 61
0.02098991 0.082758673 0.28690696 0.0028145683 259 59
0.022233848 0.082421392 0.28567329 0.0031345575 250 57
0.023545453 0.082358822 0.28538734 0.0029783184 275 63
0.024960799 0.082646459 0.2863099 0.002913275 285 65
0.026150487 0.082195632 0.2846694 0.002667035 302 69
0.027208673 0.081394926 0.28181332 0.0021217861 428 98
0.028163707 0.080373563 0.27818996 0.0017380168 571 131
0.029435989 0.080307618 0.27786937 0.0017377741 508 116
0.031006461 0.081026465 0.28025797 0.0019698571 432 99
0.032431778 0.081323177 0.28117952 0.0018408612 511 117
0.033767398 0.081380665 0.28126767 0.0017965845 529 121
0.034927808 0.081027366 0.27993041 0.0016184865 569 130
0.036148064 0.08083339 0.27913809 0.0018040034 470 107
0.037704349 0.081378184 0.28089005 0.0019135528 447 102
0.039038591 0.081423178 0.28090933 0.001949263 430 98
0.040287588 0.081293263 0.28031835 0.0021395779 412 94
0.041721985 0.081533849 0.28099775 0.002249697 390 89
0.043081868 0.081618555 0.28113204 0.0021661508 395 90
0.04449692 0.081799656 0.28159037 0.0021992212 369 84
0.045692861 0.081579126 0.28065845 0.002113417 386 88
0.046673805 0.08099784 0.27847913 0.0020523292 397 91
0.047853012 0.080782905 0.27755311 0.0022464585 347 79
0.049253989 0.080943838 0.27791023 0.0021418692 381 87
0.050661873 0.081107497 0.27826735 0.0022262947 347 79
0.052140571 0.081373438 0.27896538 0.0022126925 357 81
0.053498555 0.081442557 0.27897877 0.0022516341 383 87
0.054780677 0.081395641 0.27858511 0.0023176926 350 80
0.055849098 0.081040829 0.27712935 0.0023520575 341 78
0.056933381 0.080724724 0.27579826 0.0025196013 336 77
0.058248546 0.080742821 0.27559984 0.0022422986 351 80
0.059673019 0.080908321 0.27589372 0.0023462893 334 76
0.060912065 0.080820702 0.27531382 0.002210147 374 85
0.062095206 0.080664121 0.27448928 0.0023522212 321 73
0.063341618 0.080594495 0.27395052 0.002270638 351 80
0.064496361 0.080413371 0.27302271 0.002492704 338 77
0.065360785 0.079884544 0.27090606 0.0022332172 354 81
0.066494159 0.079698533 0.26994359 0.0023215567 359 82
0.068017244 0.079977825 0.2705453 0.0023641912 365 83
0.069477469 0.08017417 0.27085283 0.002260464 358 82
0.0707509 0.080151737 0.27040875 0.0021571245 375 86
0.071401902 0.079437621 0.26762295 0.0021175863 366 84
0.072862409 0.079633415 0.26789334 0.0021670456 374 85
0.074068904 0.079549611 0.2672109 0.0020506608 397 91
0.075385928 0.079585381 0.26691872 0.002166329 362 83
0.076603882 0.079517074 0.26626617 0.0022924813 382 87
0.077757344 0.079385199 0.26539046 0.0020561633 400 91
0.078824714 0.079171121 0.26423076 0.0021479947 374 85
0.08010903 0.079178296 0.26379982 0.002286338 364 83
0.081210271 0.079007141 0.26276538 0.0023444714 367 84
0.082241677 0.078774363 0.26151851 0.0021095683 386 88
0.083586752 0.07884457 0.26126912 0.0020699375 406 93
0.085129902 0.079096697 0.261612 0.0022278975 383 87
0.086259373 0.078962699 0.26066917 0.0022143996 405 92
0.087140404 0.078608461 0.25899556 0.0021141309 407 93
0.088244244 0.078462519 0.25800568 0.0020515269 392 89
0.089513294 0.078465514 0.25750193 0.0020764768 403 92
0.09062022 0.078328297 0.25653574 0.0021090475 384 88
0.091452941 0.07796111 0.25481808 0.0022388645 390 89
0.093028463 0.078228489 0.25517526 0.0020386474 410 94
0.094420113 0.078336194 0.25501096 0.0021274725 374 85
0.095819183 0.078447104 0.25485975 0.0021708549 370 84
0.096754514 0.07818041 0.25348887 0.0023663621 359 82
0.09813603 0.078276478 0.25330371 0.0025152331 323 74
0.099591494 0.078428343 0.25330839 0.0024133546 344 78
0.10056587 0.078202285 0.25210637 0.0022376629 358 82
0.10158209 0.078013957 0.25104436 0.0023118258 340 78
0.10279953 0.077982888 0.25050831 0.0023415042 329 75
0.10363896 0.077669293 0.2490876 0.0024278546 309 70
0.10456292 0.077425763 0.2479182 0.0024567198 301 69
0.10576108 0.077388629 0.24743718 0.0025741083 280 64
0.10663449 0.077117518 0.24623774 0.0026138676 286 65
0.10765632 0.076958746 0.24542934 0.0029562828 284 65
0.1088399 0.076917894 0.24503016 0.0027285153 263 60
0.10970186 0.07665325 0.24395318 0.0026772104 270 61
0.11024731 0.076175809 0.24223657 0.0031824254 243 55
0.11114775 0.075951464 0.24136312 0.002924887 246 56
0.11215016 0.075800933 0.24076247 0.002950493 235 53
0.11301046 0.075558633 0.23990895 0.0035221535 216 49
0.11449629 0.075735264 0.24042425 0.0032156182 215 49
0.11522378 0.075411864 0.23939084 0.0035802026 200 45
0.11564468 0.074896634 0.23778689 0.0035168058 193 44
0.11570654 0.074161954 0.23552342 0.0033535413 194 44
0.11674622 0.074062631 0.23531422 0.0035560273 185 42
0.11750451 0.073788606 0.23458605 0.0033952012 202 46
0.11820383 0.073483407 0.23379345 0.0035423751 186 42
0.11911327 0.073313616 0.23346533 0.0042044832 172 39
0.12030428 0.073318757 0.23372786 0.0043450207 163 37
0.12164857 0.073416308 0.23431838 0.004184314 162 37
0.12203296 0.072938234 0.23310214 0.0040807114 163 37
0.12159052 0.071979843 0.23037517 0.0041224416 154 35
-0.12712373 0.067707054 0.21999933 0.0041553127 154 35
-0.12699057 0.068212867 0.22107637 0.004098244 156 35
-0.12738071 0.069010869 0.22308442 0.0042520487 147 33
-0.12666534 0.069218591 0.22318089 0.0045002303 148 33
-0.12696403 0.069988966 0.22509481 0.0041727358 146 33
-0.12670107 0.070460595 0.22605316 0.0045968369 149 34
-0.12530378 0.07030417 0.2250119 0.0038322927 164 37
-0.12427338 0.070352644 0.22464678 0.0040199975 166 38
-0.12493509 0.07136862 0.22738418 0.0043646833 163 37
-0.12456719 0.071809635 0.22830169 0.0039517791 160 36
-0.12495705 0.072699651 0.23066133 0.0042745583 166 38
-0.12493998 0.073367327 0.23233032 0.004257008 168 38
-0.124129 0.073576957 0.23256944 0.0040214956 176 40
-0.12350731 0.073903844 0.23320319 0.00383965 172 39
-0.12344876 0.074577212 0.23495331 0.0042247386 162 37
-0.1232194 0.075159423 0.23643963 0.0038014229 172 39
-0.1220644 0.075182892 0.23619622 0.0037450402 174 39
-0.12105753 0.075298965 0.23627502 0.0035446719 188 43
-0.12021287 0.075519256 0.2367125 0.0034789038 192 44
-0.11929446 0.075697169 0.23704988 0.004148718 181 41
-0.11884186 0.076177314 0.2383668 0.0037746555 177 40
-0.11861642 0.076814421 0.24020836 0.0038784025 194 44
-0.11682321 0.076438963 0.23891972 0.0035190133 189 43
-0.11565022 0.076465681 0.23892598 0.0036246192 189 43
-0.11494426 0.076805048 0.23994662 0.0031015289 217 49
-0.11567208 0.078120008 0.24405301 0.0036911154 202 46
-0.11399516 0.077821799 0.24315844 0.0031956441 215 49
-0.11269633 0.077777989 0.24309704 0.0029054363 258 59
-0.11296772 0.078828931 0.24649681 0.0031436037 216 49
-0.11174345 0.078848034 0.24670954 0.0034168658 222 50
-0.10976358 0.078328364 0.24527222 0.0030917379 220 50
-0.10854351 0.078345224 0.24554926 0.0029149065 250 57
-0.10771762 0.078650258 0.2467646 0.0029320635 242 55
-0.10677836 0.078878716 0.24777406 0.0030151536 237 54
-0.10565723 0.078976661 0.24840553 0.0029614174 239 54
-0.10429804 0.07889685 0.24850661 0.0027089824 266 61
-0.10360956 0.079328641 0.25024706 0.0028073916 259 59
-0.10292963 0.07977768 0.25207028 0.0027876226 271 62
-0.100864 0.07915052 0.25051373 0.0026284321 279 64
-0.099421494 0.079002693 0.25048897 0.0027882576 272 62
-0.098644905 0.079386979 0.25216913 0.0025985432 309 70
-0.098265253 0.080104806 0.2549291 0.0024323461 311 71
-0.096693009 0.079856515 0.25462872 0.0024668837 305 70
-0.095187604 0.07965757 0.25449196 0.0025965683 297 68
-0.093895048 0.07963378 0.25492004 0.0023992364 311 71
-0.092863604 0.079833813 0.25607032 0.0024785744 300 68
-0.091791198 0.080003679 0.25712875 0.0026725212 306 70
-0.090050571 0.079587735 0.2563034 0.0024854799 302 69
-0.089037679 0.079812296 0.25753841 0.0025013979 295 67
-0.088485748 0.080462493 0.26014987 0.002630973 280 64
-0.087464921 0.080699123 0.2614257 0.0025175672 298 68
-0.086407527 0.080908529 0.26261079 0.0024519628 306 70
-0.085428312 0.081198573 0.26405436 0.0027296059 300 68
-0.08383511 0.080904983 0.26359245 0.0025915119 287 65
-0.082463942 0.080819853 0.2637991 0.0026260708 278 63
-0.08105398 0.080693409 0.26386076 0.0028396358 272 62
-0.079931267 0.080853477 0.26484978 0.0027177467 282 64
-0.078835763 0.081046745 0.26593953 0.0026053749 289 66
-0.077813067 0.081322506 0.26729202 0.0026347265 280 64
-0.076139525 0.080915906 0.26639009 0.0026695405 293 67
-0.074612021 0.080653206 0.26594728 0.0026640315 306 70
-0.07311967 0.080420002 0.26558793 0.0026190539 286 65
-0.072958842 0.08166898 0.27011713 0.00284026 269 61
-0.071524426 0.081511736 0.26998916 0.0027745792 261 59
-0.070567124 0.081902474 0.27166569 0.0027779713 260 59
-0.06934958 0.082000129 0.27236074 0.002855818 264 60
-0.068071276 0.082028307 0.27281404 0.0027930138 257 58
-0.066901602 0.082191043 0.27370414 0.0027988171 282 64
-0.065380216 0.081919588 0.27313638 0.002882123 247 56
-0.06424804 0.082134657 0.27417937 0.0028835349 252 57
-0.0629237 0.082107902 0.27440473 0.0028184406 255 58
-0.061614893 0.082100712 0.27468431 0.0031194477 247 56
-0.061039984 0.083092228 0.27829811 0.0028249032 254 58
-0.059265263 0.08245822 0.27645814 0.0028407113 255 58
-0.057782151 0.082210444 0.27589974 0.0027839458 256 58
-0.056679454 0.082504973 0.2771512 0.002858965 248 56
-0.05568995 0.082982115 0.27900857 0.0030987365 252 57
-0.054316331 0.082896136 0.27896395 0.0032201202 239 54
-0.052954782 0.082824752 0.27895847 0.0028384705 250 57
-0.051739391 0.082984187 0.27972117 0.0029484059 242 55
-0.050172664 0.082573704 0.2785531 0.0030466584 251 57
-0.048707735 0.082313232 0.27788049 0.0028986037 249 57
-0.047488786 0.082465552 0.27859265 0.0027775539 259 59
-0.046439037 0.082928658 0.2803477 0.0028423304 248 56
-0.045289662 0.083235689 0.28156865 0.0030459461 249 57
-0.04393724 0.083176777 0.2815443 0.0028777199 248 56
-0.042515561 0.082979068 0.28104177 0.0028971902 267 61
-0.041593749 0.083775505 0.28389996 0.0029510455 240 55
-0.040320057 0.083892405 0.28444967 0.0028223046 260 59
-0.03882391 0.083538637 0.28339592 0.0030633437 252 57
-0.037531108 0.083612859 0.28378668 0.0028984118 243 55
-0.036428798 0.084132463 0.28568318 0.0028456564 247 56
-0.035080802 0.084102623 0.28570819 0.0028107548 257 58
-0.033543404 0.083598368 0.28411445 0.0026747212 281 64
-0.032131318 0.083377741 0.28347743 0.0026261616 278 63
-0.03106677 0.084078744 0.28596839 0.0029283462 270 61
-0.029659793 0.083874322 0.28537467 0.002613005 289 66
-0.028160453 0.083377235 0.2837787 0.0025753016 317 72
-0.026790924 0.0832344 0.28338218 0.0024068509 323 74
-0.025409099 0.083036564 0.28279278 0.002447342 338 77
-0.024297554 0.083748683 0.28529769 0.0023294271 345 79
-0.022807287 0.0831623 0.28337425 0.0021556043 358 82
-0.021436969 0.082968108 0.28278154 0.0022367977 384 88
-0.020232506 0.083432429 0.28442869 0.0021362996 405 92
-0.01892392 0.083502345 0.28472704 0.0019704832 422 96
-0.017505899 0.08306355 0.28328598 0.0019253595 459 105
-0.016108427 0.082658693 0.28195566 0.0018111093 517 118
-0.014693532 0.082084708 0.28004357 0.0018222685 533 122
-0.013395336 0.082114384 0.2801865 0.0017197351 523 120
-0.01224172 0.083132304 0.28369775 0.0021019082 373 85
-0.011099317 0.084481537 0.28833658 0.002554863 290 66
-0.0097596105 0.084493473 0.28840768 0.0026567688 270 61
-0.0083899703 0.084208786 0.28746217 0.0027031228 265 60
-0.0070367958 0.084012754 0.28681523 0.0031563647 247 56
-0.0057650195 0.084924117 0.2899451 0.002918686 258 59
-0.0043970174 0.084541693 0.28865394 0.0030490069 230 52
-0.0030612298 0.084714726 0.28925544 0.0033391691 216 49
-0.0017200466 0.084892601 0.28986958 0.0029187892 247 56
-0.00037239585 0.084883563 0.28984174 0.0030891732 248 56
0.00097250589 0.084660202 0.28907818 0.0028148293 254 58
0.0023238249 0.084930554 0.28999662 0.0029512409 267 61
0.0036878523 0.08529631 0.29123688 0.0030052424 273 62
0.0050331922 0.085149474 0.29072306 0.0024177169 307 70
0.006356399 0.084769629 0.28940985 0.0023412379 334 76
0.0076835221 0.084565625 0.28869319 0.0023370844 321 73
0.0089563895 0.083913974 0.2864446 0.0022004058 371 85
0.010242108 0.08353588 0.28512615 0.0020975736 392 89
0.011685465 0.084382795 0.28798473 0.0023551742 347 79
0.013022143 0.084364399 0.2878857 0.0024806955 298 68
0.014399815 0.084590241 0.28861579 0.002829964 276 63
0.015689181 0.084303059 0.28759128 0.0027098744 270 61
0.016931606 0.083828613 0.28592408 0.0026257809 276 63
0.01825003 0.083772175 0.28567839 0.0029866984 257 58
0.019610457 0.083903104 0.28606716 0.0027656921 259 59
0.020706823 0.082959436 0.2827881 0.0026372971 276 63
0.021922575 0.082578368 0.281423 0.0025312405 297 68
0.023590237 0.08384648 0.28567275 0.0027543018 289 66
0.024873655 0.083686382 0.28505048 0.0026736388 311 71
0.02602418 0.083118059 0.28303337 0.002348505 347 79
0.027150357 0.082530603 0.28094694 0.0020037668 460 105
0.028174333 0.081700839 0.27803192 0.0017424444 578 132
0.029470354 0.081698269 0.27792731 0.0018854223 458 105
0.030833943 0.081875354 0.27842805 0.0017984197 485 111
0.032267477 0.082216322 0.27947965 0.0017139371 521 119
0.033706769 0.082544871 0.28048217 0.0017939503 491 112
0.034893066 0.082252465 0.27936852 0.0017883136 510 117
0.036175869 0.08220043 0.27906546 0.0019428778 465 106
0.037695557 0.082671545 0.2805312 0.0018402876 467 107
0.038993519 0.08264105 0.28028733 0.0018435969 487 111
0.040170308 0.08236409 0.27920115 0.0020742756 420 96
0.041314367 0.082039595 0.27794778 0.0019115279 451 103
0.042990502 0.082759202 0.2802237 0.0020041221 431 98
0.044202648 0.082569428 0.27941179 0.0021785828 401 92
0.045343768 0.082261719 0.27819401 0.0021177451 384 88
0.046632688 0.082231864 0.27790862 0.0021641082 390 89
0.0476471 0.08173275 0.27603033 0.0022204143 369 84
0.048983961 0.081798561 0.27605259 0.0021750566 357 81
0.050648846 0.0823946 0.27785382 0.0022155389 357 81
0.052077193 0.082585521 0.27827802 0.002231258 357 81
0.053577289 0.082878046 0.27903405 0.0023266757 341 78
0.054862149 0.082831591 0.27863869 0.0023661824 341 78
0.056006372 0.082579933 0.27754426 0.0023073808 342 78
0.057056166 0.082203746 0.27602333 0.0022744425 342 78
0.057968475 0.081650734 0.27390161 0.0022839236 338 77
0.059415687 0.081858858 0.27432406 0.0021657129 367 84
0.060884614 0.082087345 0.2748028 0.0022449568 358 82
0.062102813 0.081975311 0.27413049 0.0024089003 353 81
0.063361064 0.081919655 0.27363652 0.0023350923 366 84
0.064493522 0.081706867 0.27260771 0.0024142768 359 82
0.065409556 0.08123368 0.27070171 0.0021763258 367 84
0.066638157 0.08115948 0.27011621 0.0021098789 383 87
0.067976378 0.08121907 0.26996472 0.0021544858 376 86
0.069541186 0.081542134 0.27067587 0.0021140887 394 90
0.070615195 0.08128839 0.26946056 0.0022884412 339 77
0.071705513 0.081062213 0.26832721 0.0022635923 353 81
0.073014483 0.081086837 0.26801351 0.0023318301 354 81
0.074042968 0.080804475 0.26667497 0.0021976738 364 83
0.075217344 0.080688268 0.26587543 0.0021544874 372 85
0.076591395 0.080786549 0.26577154 0.0022655374 355 81
0.077819474 0.080730163 0.26514763 0.0020420819 401 92
0.079064503 0.080692902 0.26457638 0.0022080368 400 91
0.080085084 0.080431409 0.26326129 0.0020568981 404 92
0.080972545 0.080046542 0.26153624 0.0020574857 421 96
0.082042575 0.079851247 0.2604247 0.0021438089 402 92
0.082887448 0.079446085 0.25862375 0.0020390626 432 99
0.085257225 0.080492757 0.26153731 0.0022585362 389 89
0.086516522 0.080475584 0.26098087 0.0023413559 376 86
0.087007239 0.07975439 0.25813997 0.0020781329 383 87
0.087955654 0.079467408 0.25670618 0.0022652457 385 88
0.089253463 0.079499759 0.25630206 0.0023303404 371 85
0.090340368 0.079345964 0.25529671 0.0021924993 363 83
0.091106333 0.078918405 0.25341392 0.0021118622 369 84
0.092092134 0.078690276 0.25217712 0.002116276 390 89
0.094199464 0.079413757 0.2539902 0.0024038341 353 81
0.095065117 0.079085171 0.25244132 0.0021387367 372 85
0.095545657 0.078448936 0.24992411 0.0021799661 362 83
0.098092429 0.079503767 0.25280175 0.0023669729 335 76
0.099508338 0.079626881 0.25272211 0.0023460202 331 75
0.10039429 0.079328127 0.25131962 0.0022449663 351 80
0.10153468 0.07923536 0.25058943 0.002337323 328 75
0.10243272 0.078958035 0.24929766 0.0023391759 327 75
0.10376561 0.079018556 0.24909626 0.0025121153 301 69
0.10458943 0.078694612 0.24770913 0.0025005916 294 67
0.1050316 0.078094542 0.2454842 0.002847434 278 63
0.10650408 0.078265607 0.24571438 0.0029632428 263 60
0.10761958 0.078173429 0.24514915 0.0026319344 277 63
0.10896212 0.078246377 0.24513496 0.002801772 251 57
0.11011624 0.078183897 0.24473117 0.0028108752 260 59
0.11079913 0.077791974 0.24333315 0.0031118349 238 54
0.11141066 0.07735914 0.24184567 0.0031329056 237 54
0.11226682 0.077103749 0.24095152 0.0030304727 231 53
0.11314373 0.07686796 0.24015707 0.0031101368 220 50
0.11417873 0.076743461 0.23974863 0.0033532453 202 46
0.11521504 0.076622464 0.23938926 0.0032831063 205 47
0.11572143 0.07615526 0.23798582 0.0038728497 199 45
0.11661564 0.075950295 0.23743869 0.0036140091 181 41
0.11725168 0.075583108 0.23642036 0.0037680634 175 40
0.11794901 0.075262457 0.23558229 0.0039768266 185 42
0.11847724 0.074841432 0.23446329 0.0036731712 181 41
0.11846031 0.074087806 0.23233299 0.0040955641 162 37
0.11996238 0.07428968 0.23323025 0.0041438607 154 35
0.121266 0.074365929 0.23376612 0.004092535 157 36
0.122184 0.074206494 0.23359182 0.00417251 156 35
0.12411916 0.07466197 0.23538449 0.0042982046 141 32
-0.12897913 0.069785744 0.22350837 0.0046514696 133 30
-0.12897487 0.070378482 0.2248431 0.0046154656 129 29
-0.12789695 0.070390493 0.22430472 0.0046225311 138 31
-0.12805776 0.071090393 0.22595268 0.0044106971 142 32
-0.128433 0.07192263 0.22801705 0.004330711 146 33
-0.12766214 0.07212206 0.22808039 0.0046185469 154 35
-0.12633377 0.072007284 0.227166 0.0039766757 163 37
-0.12466761 0.07169617 0.22565402 0.0039810794 165 37
-0.12376121 0.071820326 0.22553337 0.0039162966 165 37
-0.12505965 0.073237963 0.22948518 0.0040413975 158 36
-0.12503769 0.073901378 0.23108236 0.0040096706 155 35
-0.12492435 0.074522659 0.23256342 0.0046680621 157 36
-0.12543607 0.075532004 0.23527084 0.0038702856 173 39
-0.12462421 0.075755961 0.23555121 0.004414178 164 37
-0.12365519 0.075887762 0.23557059 0.0041398532 159 36
-0.12272399 0.076045543 0.23569784 0.0038177217 169 38
-0.12149456 0.076019816 0.23528534 0.0038702989 165 37
-0.12053064 0.076161355 0.23542076 0.0037313392 193 44
-0.11937931 0.076186106 0.23522635 0.0035198689 193 44
-0.11924987 0.076870076 0.23709771 0.0039315736 171 39
-0.11919758 0.077618212 0.23919673 0.0043937284 162 37
-0.1184706 0.077937871 0.24000767 0.0039104796 181 41
-0.11635351 0.077340163 0.23802993 0.0039655729 186 42
-0.11458414 0.076963462 0.23677021 0.0036794865 191 43
-0.11518268 0.078186117 0.24046682 0.0036737241 197 45
-0.11441544 0.078497946 0.2413986 0.0032294663 209 47
-0.11349864 0.078712806 0.24206986 0.0035336672 206 47
-0.11317824 0.079350539 0.24407993 0.0033008752 203 46
-0.11296957 0.08008159 0.2464162 0.0033662478 224 51
-0.11185127 0.080176972 0.24683522 0.0031501376 220 50
-0.11024166 0.079918362 0.24620104 0.002891677 251 57
-0.10880999 0.079784304 0.24598572 0.0029590924 240 55
-0.10807915 0.080166951 0.24739885 0.002960664 237 54
-0.10669032 0.080064803 0.24734995 0.0029883522 245 56
-0.10547536 0.080092244 0.24773265 0.0028499109 248 56
-0.1047532 0.08049906 0.24932016 0.0027249404 275 63
-0.10348791 0.080493324 0.24965909 0.002747955 260 59
-0.10267315 0.08084216 0.25112477 0.0031187937 254 58
-0.10088618 0.080424659 0.25023246 0.0026967726 270 61
-0.099927485 0.080665253 0.25140738 0.0026833431 269 61
-0.09972503 0.081530258 0.25455239 0.0025652421 291 66
-0.097871661 0.08105047 0.25351638 0.002758059 287 65
-0.096648291 0.081086673 0.25410488 0.0028024025 261 59
-0.095045306 0.0808011 0.25369418 0.0025990228 289 66
-0.09386991 0.080876254 0.25442305 0.0027244133 301 69
-0.093043663 0.081258379 0.25612649 0.002708609 305 70
-0.091895647 0.081366174 0.25697228 0.002493009 306 70
-0.090589494 0.081335008 0.25738174 0.0026128539 297 68
-0.08910884 0.08114408 0.2572844 0.0024946558 340 78
-0.088367812 0.081630841 0.25933638 0.0025215952 315 72
-0.087173678 0.08170718 0.26008508 0.0024941007 296 67
-0.086385444 0.082171902 0.26206902 0.00281082 282 64
-0.085366838 0.082428202 0.26338726 0.0026175084 281 64
-0.084268384 0.082614064 0.26447651 0.0025800816 284 65
-0.082550749 0.082189247 0.26360187 0.0025960761 287 65
-0.081022099 0.081942126 0.26328492 0.0026801089 280 64
-0.079719827 0.081919707 0.26367941 0.0029604109 265 60
-0.07861118 0.082098767 0.26471385 0.0026934252 274 62
-0.077594481 0.082381375 0.26607472 0.002674127 283 64
-0.076687545 0.082792036 0.26784247 0.0026252815 279 64
-0.075054608 0.082419544 0.267066 0.0025850469 290 66
-0.073462412 0.082079567 0.26638037 0.0026664608 293 67
-0.07213603 0.082029767 0.26662332 0.0029147964 270 61
-0.071021378 0.082223289 0.26764667 0.0026850796 278 63
-0.070412487 0.083020277 0.27062771 0.0027019121 261 59
-0.06931252 0.083257318 0.27177674 0.0029160352 260 59
-0.067953326 0.083186068 0.27190876 0.0029934926 256 58
-0.066618986 0.083143063 0.27212125 0.0027390246 268 61
-0.065375037 0.083213411 0.27269351 0.0031193644 246 56
-0.064138547 0.083296306 0.27329633 0.0028887158 249 57
-0.063002117 0.083515264 0.27433565 0.0030737682 244 56
-0.06185174 0.083724603 0.27533409 0.0029297222 262 60
-0.060479816 0.083636619 0.27534437 0.0027488433 262 60
-0.058970466 0.083350517 0.27469051 0.0030477729 254 58
-0.057759523 0.083482765 0.27540442 0.0029724259 256 58
-0.056743588 0.083909526 0.27708149 0.002985765 243 55
-0.055504683 0.084018961 0.27770242 0.0030676352 232 53
-0.054241583 0.084096171 0.27820748 0.0030946259 244 56
-0.053130418 0.08441861 0.27951542 0.0029067865 242 55
-0.051604051 0.084080987 0.27862832 0.0030008496 249 57
-0.050157689 0.083859466 0.2781153 0.0029819503 253 58
-0.048742652 0.083679847 0.27773124 0.0029156082 239 54
-0.04747916 0.083757654 0.27819264 0.0031965096 250 57
-0.046356786 0.08409588 0.27951151 0.0030469573 233 53
-0.045146082 0.08428894 0.28034076 0.0034040182 233 53
-0.043692764 0.084027007 0.27964854 0.002904712 238 54
-0.042394985 0.084057242 0.27992031 0.0028262998 259 59
-0.041422993 0.084756009 0.28241223 0.0030169827 237 54
-0.040174112 0.08491566 0.28310192 0.0031110714 241 55
-0.038673781 0.08453659 0.28198785 0.0028134892 254 58
-0.037484184 0.084833957 0.28312302 0.0030718904 243 55
-0.036306117 0.085180193 0.28441536 0.0029451775 239 54
-0.034997478 0.085234761 0.28472775 0.002972659 243 55
-0.033509545 0.084839709 0.28353125 0.00265368 278 63
-0.032061663 0.084517695 0.28257152 0.0027035333 275 63
-0.030532937 0.083945744 0.28076881 0.0030390313 272 62
-0.029406168 0.084477171 0.28265047 0.0025783347 295 67
-0.028158672 0.084695436 0.28347951 0.0026362175 281 64
-0.026772454 0.084497392 0.2829096 0.002429053 318 72
-0.02550572 0.084675483 0.28359348 0.0024563617 308 70
-0.024040362 0.084177576 0.28200769 0.0023244508 331 75
-0.022707256 0.084111914 0.28186429 0.0021123672 393 90
-0.021363435 0.083996058 0.28154749 0.0022226945 393 90
-0.020230565 0.084748738 0.28413758 0.0022329318 354 81
-0.01890024 0.084721752 0.28410941 0.0021369718 429 98
-0.017458303 0.084152706 0.2822583 0.0018295753 480 110
-0.016056163 0.083698407 0.2807869 0.0017002972 532 122
-0.014699996 0.083424434 0.27991551 0.0016824263 562 128
-0.013314334 0.082913466 0.27824417 0.0015507583 615 141
-0.012224099 0.08433041 0.28303865 0.001960559 406 93
-0.011023687 0.085237831 0.28611991 0.0025640468 283 64
-0.0097696688 0.08592321 0.28845221 0.0028296765 249 57
-0.0083704721 0.085346743 0.2865442 0.0028148822 261 59
-0.0070139915 0.08506982 0.28563756 0.0029261971 251 57
-0.0056712371 0.084868811 0.28498167 0.0029414012 235 53
-0.0043704286 0.085364401 0.28666082 0.0032394214 235 53
-0.0030336268 0.085283518 0.28640029 0.0030379728 237 54
-0.001717421 0.086108573 0.2891781 0.0030363963 233 53
-0.00037466525 0.086756542 0.29135728 0.0029247201 251 57
0.0009732116 0.086066537 0.28903913 0.0027404667 263 60
0.0023172998 0.086036511 0.28893337 0.0029902798 252 57
0.0036708738 0.086251393 0.28964609 0.0026108783 285 65
0.005013606 0.086164564 0.28934157 0.0027605144 274 62
0.0062659006 0.084889233 0.28504226 0.0023328154 328 75
0.0076192701 0.085189655 0.28603011 0.0023219602 339 77
0.0089412453 0.085101902 0.28571054 0.0022114119 369 84
0.01027282 0.085116424 0.28573024 0.0023156547 347 79
0.011626646 0.085290827 0.28628236 0.00227668 341 78
0.013020242 0.085691117 0.28758821 0.002558742 322 73
