# .PCD v0.7 - Point Cloud Data file format
VERSION 0.7
FIELDS x y z noise intensity gray
SIZE 4 4 4 4 2 1
TYPE F F F F U U
COUNT 1 1 1 1 1 1
WIDTH 910
HEIGHT 1
VIEWPOINT 0 0 0 1 0 0 0
POINTS 910
DATA ascii
0.002915272 0.010139475 0.36626798 0.0058329641 113 27
0.0046864944 0.01031527 0.37262473 0.0060497792 105 25
0.0063071009 0.010154162 0.36681393 0.0067227222 101 24
0.0079854857 0.010134594 0.3661187 0.0072144 97 23
0.0096695516 0.010127813 0.36588821 0.0065359799 87 21
0.011246325 0.010027387 0.36227691 0.0077208346 89 21
0.012959048 0.010058486 0.36341986 0.0069144755 95 23
0.014753581 0.010138674 0.36633906 0.0058347401 91 22
0.016520467 0.010185324 0.36804894 0.005552656 107 26
0.018151172 0.010147145 0.36669561 0.0042328127 140 34
0.019662663 0.010054518 0.36337638 0.0041959831 147 35
0.021004589 0.0098965587 0.35769701 0.0034789667 175 42
nan nan nan 0 216 52
0.024320038 0.009902169 0.35796335 0.0030647176 217 53
0.026070882 0.0099399444 0.35936278 0.0029002698 231 56
0.027434232 0.0098342961 0.35557786 0.0026685568 306 74
0.029075639 0.0098346202 0.35562488 0.0025618614 344 84
0.030927245 0.0099022128 0.35810524 0.0024320604 356 87
0.032933753 0.010010031 0.36204138 0.0027981757 322 78
0.035175204 0.010175409 0.36806038 0.0028882006 308 75
nan nan nan 0 270 66
nan nan nan 0 248 60
nan nan nan 0 268 65
nan nan nan 0 212 51
nan nan nan 0 201 49
nan nan nan 0 266 65
nan nan nan 0 199 48
nan nan nan 0 158 38
nan nan nan 0 159 38
nan nan nan 0 144 35
nan nan nan 0 194 47
nan nan nan 0 146 35
nan nan nan 0 174 42
nan nan nan 0 220 53
nan nan nan 0 185 45
nan nan nan 0 247 60
nan nan nan 0 234 57
nan nan nan 0 226 55
nan nan nan 0 184 44
nan nan nan 0 294 71
nan nan nan 0 294 71
nan nan nan 0 380 92
nan nan nan 0 379 92
nan nan nan 0 384 93
nan nan nan 0 443 108
nan nan nan 0 523 127
nan nan nan 0 706 172
nan nan nan 0 726 177
0.082077719 0.0098956311 0.35761535 0.0013163971 902 220
nan nan nan 0 1462 255
0.083137184 0.0096357921 0.34798542 0.0010390976 1274 255
nan nan nan 0 1565 255
nan nan nan 0 1674 255
nan nan nan 0 1877 255
nan nan nan 0 1895 255
nan nan nan 0 1892 255
nan nan nan 0 1910 255
nan nan nan 0 1919 255
nan nan nan 0 1899 255
nan nan nan 0 1947 255
nan nan nan 0 1929 255
nan nan nan 0 1905 255
nan nan nan 0 1877 255
nan nan nan 0 1855 255
0.11010902 0.010043439 0.35938078 0.00088989508 1348 255
nan nan nan 0 1700 255
0.11599898 0.010268218 0.36665815 0.0010340561 972 237
0.12033099 0.010496693 0.37439382 0.0014199035 710 173
0.11844975 0.010184395 0.36282367 0.0016761364 547 133
0.12231115 0.010367704 0.36889341 0.0021362617 363 88
0.12326582 0.010302948 0.36610934 0.0024766477 288 70
0.1252224 0.010322563 0.36630279 0.0029263056 241 58
0.124685 0.010138848 0.35926628 0.0031556629 212 51
0.12404724 0.0099519975 0.35211489 0.0031082856 225 55
0.12567014 0.0099490536 0.35145763 0.0033053167 219 53
0.12680629 0.0099081537 0.34943876 0.0035253202 209 51
0.12791054 0.0098658465 0.34735182 0.0033168476 206 50
0.13026997 0.0099201975 0.34864369 0.0034775478 205 50
0.13143906 0.0098836739 0.34671709 0.0031273733 234 57
0.13173194 0.0097829876 0.34252527 0.0029141873 267 65
0.1312739 0.0096296808 0.33648527 0.0026374592 303 74
0.13219136 0.0095797591 0.33404961 0.0023850594 322 78
0.13049759 0.0093440581 0.32513478 0.0018664399 460 112
0.13409692 0.0094884504 0.32943118 0.0019403319 425 103
0.13583902 0.0094995946 0.3290686 0.0019848971 427 104
0.13771094 0.009519456 0.32898587 0.0021002516 384 93
0.13948067 0.0095318789 0.32862493 0.0024383639 319 77
0.14240746 0.0096222032 0.330924 0.0029056948 241 58
0.14328013 0.0095732687 0.32841492 0.0034311991 217 53
0.14592144 0.0096422806 0.32993701 0.0035385606 183 44
0.1472804 0.009625976 0.32852447 0.0036298106 178 43
0.14871907 0.0096151782 0.3272945 0.0036936635 171 41
0.15102242 0.0096599171 0.32794759 0.0039195009 168 41
0.15274402 0.0096668946 0.32731339 0.0043653231 147 35
0.15417819 0.0096557233 0.32606879 0.0048990161 134 32
0.15587521 0.0096610766 0.32539111 0.0047060158 132 32
0.15877791 0.0097402828 0.32720694 0.0050601605 126 30
0.16062281 0.0097536501 0.32682198 0.0054104584 122 29
0.16101249 0.009679269 0.32352686 0.0051131183 122 29
0.16159722 0.0096179731 0.32071072 0.0049246624 127 31
0.16375095 0.0096503496 0.32105684 0.0045586373 139 33
0.16027908 0.0093537904 0.31052083 0.0042124107 151 36
0.16081792 0.009294752 0.30794179 0.0041894489 152 37
0.15734075 0.0090069473 0.2978566 0.0045519094 142 34
-0.11371636 0.0067252088 0.18985648 0.0036828434 195 47
-0.11625224 0.006933806 0.19553132 0.0036843822 196 47
-0.11459186 0.0068935533 0.19422293 0.0035507947 196 47
-0.11473981 0.0069623301 0.19602697 0.0031971042 209 51
-0.11370369 0.0069598341 0.19586569 0.0030118434 231 56
-0.11379781 0.0070270887 0.19771066 0.0031151527 235 57
-0.11288189 0.0070326128 0.19786349 0.00288152 249 60
-0.11052471 0.0069476385 0.19551532 0.0027423301 259 63
-0.10902791 0.0069156983 0.19470419 0.0026439552 269 65
-0.10888822 0.0069700424 0.1963679 0.0025022605 293 71
-0.11232243 0.0072562722 0.2046178 0.0025906374 317 77
-0.11735722 0.0076522054 0.21602669 0.0030330413 257 62
-0.12287518 0.0080873873 0.22861923 0.0037748702 192 46
-0.11948705 0.00793909 0.22477429 0.0033547867 192 46
-0.11467171 0.0076922108 0.21816278 0.0025270397 279 68
-0.11495128 0.0077856276 0.22123411 0.0024485209 304 74
-0.11329678 0.0077485964 0.22063713 0.0024443411 311 76
-0.11194469 0.0077317208 0.22064239 0.0027407217 296 72
-0.11286998 0.0078733694 0.22520745 0.002600471 304 74
-0.11225992 0.0079096928 0.22679561 0.0024324798 328 80
-0.11149992 0.0079360846 0.22812322 0.0024534301 342 83
-0.11048657 0.0079448 0.22896108 0.0024527595 303 74
-0.10967349 0.0079682469 0.23023774 0.0024071555 329 80
-0.10895135 0.0079988623 0.23173371 0.0024157749 327 79
-0.10796686 0.0080106622 0.23269248 0.0023960636 334 81
-0.10861672 0.0081452774 0.23723149 0.002621463 312 76
-0.10877237 0.0082453452 0.24078098 0.0025232865 300 73
-0.10862289 0.0083242245 0.24372116 0.0023761159 323 78
-0.10769017 0.0083441632 0.24493663 0.0025826953 289 70
-0.10671885 0.008361523 0.24607049 0.0026393507 300 73
-0.1060655 0.0084044728 0.2479514 0.0025933075 285 69
-0.10497153 0.0084130922 0.24881122 0.0024285989 308 75
-0.10373944 0.0084107146 0.24933288 0.0025730918 298 72
-0.10255213 0.0084119523 0.24994729 0.0024092481 310 75
-0.10143841 0.0084193284 0.25072953 0.0025777207 285 69
-0.10032367 0.0084267948 0.25149947 0.0026134751 283 69
-0.099070899 0.0084227091 0.25190848 0.0026943842 269 65
-0.098712951 0.0084955329 0.2546052 0.0027147981 264 64
-0.096677855 0.0084240334 0.25295964 0.0027480226 274 66
-0.096055888 0.0084754163 0.25498566 0.0027259479 280 68
-0.095704406 0.008552283 0.25776821 0.0027619554 259 63
-0.095728792 0.0086651621 0.26162887 0.0031544182 240 58
-0.094772093 0.0086910306 0.26285219 0.003280533 225 55
-0.093908466 0.0087262336 0.26434329 0.0032567079 228 55
-0.092478067 0.0087090116 0.26422986 0.0031085394 227 55
-0.091046825 0.0086912392 0.26408106 0.0032534909 224 54
-0.089779809 0.0086888662 0.26438245 0.0029733612 233 56
-0.088675141 0.008702361 0.26515055 0.0028994193 246 60
-0.087720737 0.0087311976 0.26637158 0.0030073051 235 57
-0.087105103 0.0087950705 0.26864904 0.0032230248 222 54
-0.08632715 0.0088441856 0.27046421 0.0032933902 203 49
-0.085746154 0.0089152381 0.27293897 0.0031678278 222 54
-0.083930328 0.0088581089 0.27147481 0.0029957874 227 55
-0.083154105 0.0089106327 0.27335629 0.0036098752 215 52
-0.082190424 0.0089443903 0.27465022 0.0033022261 220 53
-0.081511661 0.0090107089 0.27693269 0.0034678697 205 50
-0.080032475 0.0089892577 0.27650514 0.003163219 218 53
-0.078745469 0.0089890407 0.27671686 0.003332152 210 51
-0.078127272 0.0090664309 0.27930647 0.0032445935 212 51
-0.077632576 0.0091610076 0.28241661 0.0034691889 191 46
-0.076396674 0.0091698617 0.28287387 0.003524849 190 46
-0.075956918 0.009276256 0.28633025 0.0036853824 180 44
-0.074568078 0.0092684627 0.28625214 0.0039010646 185 45
-0.07396207 0.0093594501 0.28921482 0.0037966284 173 42
-0.073387094 0.0094577912 0.29239663 0.003984822 162 39
-0.071906857 0.0094409669 0.29200843 0.0039402684 164 40
-0.070324056 0.0094097769 0.29116493 0.004112531 175 42
-0.069330074 0.0094576934 0.29275945 0.0040339781 168 41
-0.068577379 0.0095410859 0.29544392 0.004325734 166 40
-0.067273177 0.0095495749 0.29580072 0.0042120898 153 37
-0.066397183 0.0096204607 0.29808199 0.0044533298 151 36
-0.065298535 0.0096614016 0.29942775 0.0043983697 151 36
-0.064286858 0.0097172577 0.30122823 0.0041575283 155 37
-0.063739665 0.0098473411 0.30532303 0.0046973573 147 35
-0.062709183 0.0099069495 0.30722609 0.0042624203 148 36
-0.06112105 0.0098791784 0.30641225 0.0043869768 146 35
-0.05978597 0.0098919617 0.30684915 0.00459855 144 35
-0.059313107 0.01005148 0.31183186 0.0045420108 140 34
-0.058325537 0.01012953 0.31428143 0.0049754567 138 33
-0.056951873 0.010142792 0.31471515 0.0046888939 143 34
-0.055459529 0.010135058 0.31449166 0.0047850902 132 32
-0.054268375 0.010183428 0.31600377 0.0048162472 128 31
-0.053597234 0.010334737 0.32070529 0.0050169551 133 32
-0.052409276 0.010392142 0.32248819 0.0048069423 132 32
-0.051027145 0.010413274 0.32314101 0.0054697739 127 31
-0.050065566 0.010524076 0.3265723 0.0049864952 129 31
-0.049374755 0.010700428 0.33203343 0.0049073715 121 29
-0.048437908 0.010833028 0.33613318 0.0053552543 122 29
-0.047835216 0.011051591 0.3428964 0.0054279496 115 28
-0.046065055 0.011006144 0.341465 0.0057924804 105 25
-0.044307642 0.010960637 0.34002927 0.0067945337 91 22
-0.043356102 0.011118458 0.34489867 0.0080812313 75 18
-0.04172197 0.011106579 0.34450155 0.0077612512 72 17
-0.040317509 0.011157318 0.34604493 0.0068472396 81 19
-0.038993739 0.01123549 0.34843731 0.0071037482 89 21
-0.038011972 0.011423153 0.35422343 0.006273652 91 22
-0.035619795 0.011184789 0.34679794 0.0060181869 98 23
-0.033684578 0.011074251 0.3433364 0.0062824143 103 25
-0.032182194 0.01110213 0.3441661 0.0054621669 107 26
-0.030827383 0.011186449 0.34674507 0.0055905576 115 28
-0.029315799 0.011219994 0.34775007 0.0055876286 116 28
-0.027743036 0.011232654 0.34810793 0.0053855297 113 27
-0.026094951 0.011214497 0.3475115 0.0055070552 108 26
-0.024389204 0.011167559 0.34602427 0.0052050422 120 29
-0.022786779 0.011164675 0.34590319 0.0047402703 129 31
-0.02134941 0.011248314 0.34846389 0.0051583978 127 31
-0.019745123 0.011250472 0.34850159 0.0043392116 139 33
-0.018167678 0.011269664 0.34906858 0.0040971269 151 36
-0.016521746 0.011245975 0.34830901 0.0041629164 153 37
-0.014964401 0.011283977 0.34946212 0.0043208473 151 36
-0.013350175 0.011283089 0.34941271 0.0046851113 146 35
-0.011868163 0.011409055 0.35329384 0.0043515456 146 35
-0.010156008 0.011318673 0.35047761 0.0042568943 154 37
-0.0085116001 0.011283842 0.34938413 0.0047381814 137 33
-0.0070695127 0.011563661 0.35803539 0.00568916 123 30
-0.0053948681 0.011517788 0.35660493 0.0055421065 106 25
-0.0037586165 0.011549586 0.35758194 0.0061324644 109 26
-0.0021371066 0.011712007 0.36260566 0.0054512098 108 26
-0.00045942908 0.011628207 0.36000907 0.0053191511 110 26
0.0012115171 0.01171095 0.36257139 0.0054098419 112 27
0.0029002081 0.011769694 0.36439356 0.0052814721 112 27
0.00459194 0.011793111 0.3651247 0.0055155554 119 29
0.0063184197 0.011869226 0.36749023 0.0049089221 127 31
0.0080153765 0.011869394 0.36750713 0.0049743871 123 30
0.0097443499 0.011908632 0.36873639 0.0058672102 120 29
0.011492461 0.01195611 0.37022346 0.0060388306 112 27
0.01318093 0.011937276 0.36965969 0.0052893688 117 28
0.014912258 0.011957126 0.37029633 0.0054733069 107 26
0.016635168 0.011966838 0.37062123 0.0065939883 89 21
0.018328506 0.011955451 0.37029481 0.0063166148 105 25
0.020029191 0.011950388 0.37016618 0.005916514 102 24
0.021846402 0.012010183 0.37204859 0.0059488099 99 24
0.023513585 0.011984794 0.37129396 0.0066821631 99 24
0.024970142 0.011862789 0.36754709 0.0064169364 100 24
0.026424874 0.011755493 0.36425653 0.0064278026 104 25
0.028252726 0.01181709 0.36620024 0.0043448345 134 32
0.029801268 0.011761501 0.3645134 0.0043394691 137 33
0.031248152 0.011673875 0.36183366 0.0040927022 146 35
0.032793254 0.011629963 0.36050889 0.0038831034 148 36
0.03386518 0.011430581 0.35436401 0.003096669 199 48
0.035744287 0.01150946 0.35684517 0.003006258 213 52
0.037906975 0.011668692 0.36181787 0.0027132845 239 58
0.03910885 0.011531203 0.35758933 0.0024478987 284 69
nan nan nan 0 335 81
nan nan nan 0 345 84
nan nan nan 0 507 123
nan nan nan 0 459 112
nan nan nan 0 582 142
nan nan nan 0 554 135
nan nan nan 0 643 157
0.05049327 0.011133491 0.3454634 0.0015014975 692 169
nan nan nan 0 725 177
nan nan nan 0 728 177
nan nan nan 0 880 215
0.05562352 0.010891399 0.33798096 0.0012006433 983 240
nan nan nan 0 1175 255
nan nan nan 0 1060 255
nan nan nan 0 1195 255
0.063390099 0.011162288 0.34633842 0.0012269994 918 224
nan nan nan 0 1417 255
nan nan nan 0 1291 255
nan nan nan 0 1578 255
nan nan nan 0 1406 255
nan nan nan 0 1751 255
nan nan nan 0 1824 255
nan nan nan 0 1756 255
nan nan nan 0 1746 255
nan nan nan 0 1797 255
nan nan nan 0 1685 255
nan nan nan 0 1855 255
nan nan nan 0 1600 255
nan nan nan 0 1564 255
0.08696571 0.011323052 0.35015196 0.00091756013 1157 255
0.085544266 0.010934445 0.33797643 0.00089275971 1356 255
0.087039351 0.010925895 0.33754122 0.00089135888 1349 255
0.091829441 0.011323971 0.34964854 0.0010668538 965 235
0.093281932 0.011303805 0.34882146 0.0010816389 953 232
0.094750762 0.011286275 0.3480618 0.0012165032 795 194
0.10024207 0.011740446 0.36182517 0.0016940268 537 131
0.10221691 0.01177459 0.36261749 0.0018382098 395 96
0.10376675 0.011759466 0.36187547 0.0017972827 445 108
0.10547902 0.011762934 0.36168864 0.0019532572 395 96
0.10814334 0.011870801 0.36469129 0.0020705841 352 86
0.10867167 0.011744494 0.36048201 0.0021728978 339 82
0.11031619 0.011740821 0.36002177 0.0023480109 300 73
0.11368475 0.011917998 0.36508241 0.0026988536 277 67
0.1153264 0.011911578 0.3644937 0.0026868233 272 66
0.11667672 0.011875691 0.36298424 0.0031532275 230 56
0.11912657 0.011951143 0.36485541 0.0034464665 215 52
0.12051861 0.011919837 0.3634443 0.0032074766 210 51
0.11831418 0.011538658 0.35135975 0.0033960384 213 52
0.12015411 0.011556968 0.35143277 0.0032953734 215 52
0.12193894 0.011569551 0.35130817 0.0033838246 206 50
0.12391742 0.011599925 0.35169926 0.0031290723 225 55
0.12446909 0.011497698 0.34805062 0.0026235692 285 69
0.12320628 0.011232709 0.33947003 0.0024432116 352 86
0.12342067 0.011107482 0.33511025 0.0023806638 379 92
0.12521093 0.011125457 0.33505374 0.0021251892 369 90
0.1254542 0.011007251 0.33087891 0.0017487123 522 127
0.12652028 0.010963273 0.32892212 0.0019022493 442 108
0.12697093 0.010867695 0.32540318 0.0019797967 450 110
0.13063559 0.011046194 0.33006361 0.0020290674 393 96
0.13406004 0.011200362 0.33395433 0.0023173101 326 79
0.1357982 0.011211668 0.33355322 0.0029476513 254 62
0.13860251 0.011309706 0.33570436 0.0031897118 221 54
0.13886832 0.011200734 0.3316918 0.0032513076 202 49
0.14153241 0.01128548 0.33339882 0.0036837345 186 45
0.14316329 0.011286861 0.33261985 0.0041664927 167 40
0.14628872 0.011404725 0.33524933 0.0038592671 164 40
0.1467616 0.011315474 0.3317754 0.0039941981 154 37
0.14740184 0.011240936 0.32873452 0.0044474066 152 37
0.1489495 0.011236458 0.32774103 0.0043268292 156 38
0.15137726 0.011297761 0.32865766 0.0044492413 139 33
0.1532362 0.011315762 0.32830825 0.0046187094 137 33
0.15453467 0.011292433 0.32676408 0.0049976865 132 32
0.15620698 0.011296623 0.32602638 0.0049610655 137 33
0.15818542 0.01132264 0.32593018 0.0043911142 144 35
0.15906344 0.01127016 0.32359564 0.0043990328 150 36
0.15795137 0.011079141 0.31732571 0.004332121 156 38
0.15814601 0.010982662 0.31381404 0.004100828 156 38
0.15766877 0.01084188 0.30908814 0.0038407508 169 41
0.15852314 0.010794515 0.30707851 0.004030101 165 40
0.1591236 0.010730938 0.30466077 0.0045090397 156 38
0.16011442 0.01069465 0.30307442 0.0041189678 159 38
-0.11740059 0.0079356888 0.19602238 0.0036133234 192 46
-0.11541376 0.0078679128 0.19413342 0.0032289536 221 54
-0.11736682 0.0080698654 0.19893639 0.0035713932 207 50
-0.11585198 0.0080348104 0.19793457 0.0032513854 218 53
-0.11447397 0.0080087129 0.19719723 0.003476016 209 51
-0.11402721 0.0080478825 0.198111 0.0032897789 231 56
-0.11423549 0.008134393 0.20023488 0.0030474435 220 53
-0.1118643 0.0080371294 0.19788072 0.0028625696 254 62
-0.11036147 0.0080010593 0.19707815 0.0027407182 261 63
-0.10965794 0.0080228047 0.19774532 0.0026861485 263 64
-0.10890657 0.0080414219 0.19838123 0.0024621829 300 73
-0.11033454 0.0082228035 0.20308216 0.0025001443 316 77
-0.11863789 0.0089248139 0.22071302 0.0026941686 291 71
-0.12102961 0.0091912197 0.22764958 0.0031344674 239 58
-0.11904225 0.009126991 0.22644815 0.00352219 186 45
-0.11476733 0.0088844327 0.22084825 0.0028848071 229 55
-0.11340711 0.0088649709 0.22081748 0.0025527659 289 70
-0.1122851 0.0088639325 0.2212763 0.0026192453 299 73
-0.11223325 0.0089481948 0.22389729 0.0024894392 320 78
-0.1125049 0.009060204 0.22724822 0.0024434761 319 77
-0.11159258 0.0090781776 0.22826864 0.0022957677 338 82
-0.11066404 0.0090951864 0.22928305 0.0024488904 342 83
-0.11012059 0.0091445269 0.23112901 0.0021721141 363 88
-0.10894494 0.0091418549 0.23167181 0.0024611203 312 76
-0.10828607 0.0091829477 0.23333119 0.0024123942 314 76
-0.10750839 0.0092147421 0.23476087 0.0024452729 312 76
-0.10744061 0.0093087293 0.23778218 0.0025379474 304 74
-0.1078869 0.0094498023 0.24201809 0.0024831411 311 76
-0.10716567 0.0094906082 0.24369179 0.0025622407 294 71
-0.10596009 0.0094889514 0.24426936 0.0027139278 295 72
-0.1056521 0.0095685488 0.24693328 0.0028940581 279 68
-0.10404969 0.0095313974 0.24657518 0.002436189 307 75
-0.10312077 0.0095557924 0.2477954 0.0025645695 297 72
-0.1027275 0.0096309781 0.25032452 0.002502203 294 71
-0.10170419 0.0096481806 0.2513369 0.0026001548 290 70
-0.099349797 0.009538006 0.24900998 0.002690959 273 66
-0.098011032 0.0095238443 0.24916644 0.0029344687 259 63
-0.097753763 0.0096157165 0.25208458 0.0026141847 277 67
-0.097915627 0.0097516179 0.25615206 0.0026753235 282 68
-0.097272314 0.0098097492 0.25816926 0.002871783 251 61
-0.096294388 0.0098351892 0.25931275 0.0027806035 259 63
-0.095450751 0.0098751811 0.26082543 0.003010985 262 64
-0.09463843 0.0099195037 0.26243886 0.0028692067 247 60
-0.093411848 0.0099210059 0.26290396 0.0033584954 222 54
-0.09206675 0.0099097919 0.26301444 0.0032330474 212 51
-0.090610735 0.0098861726 0.26277727 0.0032303624 235 57
-0.089320011 0.0098801805 0.26299071 0.0031858794 223 54
-0.088201992 0.0098933931 0.26369917 0.0032087043 227 55
-0.087607488 0.0099665402 0.26599196 0.0032008104 225 55
-0.086823806 0.010019964 0.26774681 0.0031040669 223 54
-0.086345799 0.010110746 0.2704888 0.0035152752 212 51
-0.085195176 0.010124298 0.2711525 0.0034375703 223 54
-0.084129773 0.010148537 0.27208844 0.0032536674 224 54
-0.082876287 0.010150484 0.27241266 0.0032443658 219 53
-0.082320221 0.010239237 0.27505451 0.0032693578 213 52
-0.081070617 0.010243169 0.275406 0.0036733635 198 48
-0.079780109 0.010241977 0.27560616 0.0032815174 212 51
-0.078694537 0.010267482 0.27651197 0.0032798527 208 50
-0.077784501 0.010317118 0.27805609 0.0034631842 199 48
-0.076897092 0.01037148 0.27971703 0.0032862653 204 49
-0.075772718 0.0103952 0.28054073 0.0033972212 200 48
-0.075369231 0.010520371 0.28409293 0.0037914342 184 44
-0.074280791 0.010552684 0.28512844 0.0037145712 183 44
-0.073242426 0.010593407 0.28638101 0.0037703034 171 41
-0.072637826 0.010699525 0.28939244 0.0038765669 170 41
-0.071772769 0.010770542 0.29144612 0.003770133 175 42
-0.070420295 0.01076973 0.29154667 0.0037774881 172 42
-0.069386154 0.010818523 0.29298052 0.0040879534 169 41
-0.068430915 0.010881803 0.29479823 0.0041174022 155 37
-0.067729868 0.010988893 0.297795 0.0044618128 154 37
-0.066306889 0.010980864 0.29766393 0.0041644764 157 38
-0.06511911 0.011012267 0.29859334 0.0040496914 156 38
-0.063976981 0.011052917 0.29976568 0.0043180618 154 37
-0.063527904 0.01121774 0.30429891 0.0040630843 159 38
-0.062601581 0.011303835 0.30669022 0.0042230943 153 37
-0.061210364 0.01130802 0.30685228 0.004196337 154 37
-0.05973747 0.01129696 0.3065936 0.0043444242 146 35
-0.058883712 0.011405285 0.30956867 0.004478958 143 34
-0.057870205 0.011487279 0.31182322 0.0049755196 141 34
-0.056696746 0.011540888 0.31330153 0.0044782027 146 35
-0.055293974 0.011549402 0.31355008 0.0046432004 138 33
-0.054294337 0.011644835 0.31615311 0.0048463019 127 31
-0.053536668 0.011798859 0.320342 0.0046668495 137 33
-0.052253783 0.011842579 0.32153144 0.004759965 130 31
-0.050726485 0.011831843 0.32123795 0.005608303 125 30
-0.049648788 0.011928481 0.32385558 0.0055736164 122 29
-0.04881531 0.012091599 0.32827416 0.0048369407 127 31
-0.047469221 0.012134119 0.32941481 0.0056981887 122 29
-0.045519333 0.012020001 0.32630008 0.0052385847 123 30
-0.044261701 0.012087135 0.3281028 0.0051034675 120 29
-0.043834016 0.012393676 0.33640102 0.0058993041 113 27
-0.042370945 0.012419213 0.337069 0.0053625638 118 28
-0.041328289 0.01257461 0.34125915 0.0055907979 111 27
-0.040443182 0.012792136 0.34713277 0.0075213751 96 23
-0.040093508 0.013203918 0.35827488 0.0086653624 73 17
-0.037877634 0.013010084 0.35298243 0.0076837838 74 18
-0.036318563 0.01303457 0.3536129 0.0070102345 81 19
-0.034303945 0.012890179 0.34966165 0.0073478902 79 19
-0.032479487 0.012806528 0.34735823 0.0062144552 94 22
-0.03103066 0.012869991 0.34904507 0.0064562191 96 23
-0.029497925 0.012903693 0.34992465 0.0058519137 100 24
-0.027822481 0.012875255 0.34911951 0.0057492843 105 25
-0.026031952 0.012786795 0.34668779 0.0059075844 112 27
-0.024515299 0.012830084 0.34782904 0.0050962176 118 28
-0.023003133 0.012881953 0.3492038 0.0050460817 121 29
-0.021403227 0.012888798 0.34935915 0.005369856 111 27
-0.01979351 0.012890371 0.34937292 0.005227881 112 27
-0.018067656 0.012809878 0.3471643 0.0050566872 119 29
-0.01644787 0.012796242 0.34676942 0.0051195524 112 27
-0.014905485 0.012846375 0.3481046 0.0051007969 121 29
-0.013347334 0.012893393 0.34935707 0.0050166897 131 32
-0.011702919 0.012858551 0.34839368 0.0040088939 158 38
-0.010105731 0.012872763 0.34876165 0.0039547393 167 40
-0.0085008936 0.012880773 0.34896395 0.0039304169 166 40
-0.0069316388 0.012959057 0.3510724 0.0040528099 177 43
-0.0052384343 0.012782664 0.34628403 0.0039075757 162 39
-0.0036902491 0.012960619 0.35109761 0.0042410768 163 39
-0.0020653259 0.012936755 0.3504464 0.0040290006 167 40
-0.0004471124 0.012934291 0.35037768 0.0043560639 149 36
0.0011979046 0.013234769 0.35851794 0.005079932 127 31
0.0028504231 0.013221385 0.35815865 0.0057541053 123 30
0.0045389258 0.013323459 0.36092973 0.0054869647 122 29
0.0062278751 0.013371665 0.36224434 0.0053433855 115 28
0.0079414807 0.013441191 0.36413929 0.0053212503 108 26
0.0096494304 0.013478523 0.3651647 0.005275921 113 27
0.011408647 0.013565711 0.36754343 0.0051206136 113 27
0.013145299 0.013606965 0.3686803 0.0053741117 120 29
0.014908381 0.013662982 0.37021968 0.0054476955 109 26
0.016633462 0.013676235 0.37060255 0.0068048695 95 23
0.01828303 0.013630714 0.3693949 0.0051798276 120 29
0.01996267 0.013613471 0.36895528 0.0053500766 129 31
0.021839725 0.013722981 0.37195304 0.0053686551 134 32
0.023671012 0.013789869 0.37379748 0.0051961187 126 30
0.025396574 0.013790264 0.3738412 0.0059860619 109 26
0.027014337 0.013735796 0.3723987 0.0054312372 113 27
0.028553529 0.01365028 0.3701151 0.0050961012 119 29
0.030062871 0.013560952 0.36772844 0.0053215292 117 28
0.03149344 0.013447527 0.36468846 0.0054343166 110 26
0.032966122 0.013362673 0.36242306 0.0061404272 114 27
0.035372172 0.01364609 0.37014645 0.0061011231 108 26
0.036563624 0.01345641 0.36503732 0.0055118157 105 25
0.038155656 0.013424359 0.36420316 0.0061557544 112 27
0.040655725 0.013701021 0.37174416 0.0059569688 95 23
0.041922044 0.013556343 0.36785254 0.0057201246 111 27
0.043639045 0.013562988 0.36806527 0.0046330583 127 31
0.045432072 0.013591878 0.36888006 0.005111496 128 31
0.047316208 0.013644958 0.37034956 0.0047123223 123 30
0.049094189 0.013664794 0.37091455 0.0045864466 127 31
0.051034264 0.013726897 0.37262422 0.0040875124 137 33
0.052381124 0.013630591 0.37003076 0.00408909 139 33
0.052502669 0.013231555 0.35921493 0.0035843747 184 44
0.054805841 0.013389913 0.36352748 0.0034649074 171 41
0.0556252 0.013187111 0.35803068 0.002747542 237 57
0.059003912 0.013585263 0.36884552 0.0028283938 217 53
nan nan nan 0 273 66
0.062591419 0.013626412 0.36995754 0.0028000476 209 51
0.064153962 0.013596352 0.36913052 0.0028122731 258 63
0.066173866 0.013662267 0.37090302 0.0028559794 219 53
0.066102318 0.013303935 0.36115205 0.002568288 245 59
0.067689277 0.013288801 0.36071154 0.0023719005 299 73
0.071396284 0.013680626 0.37130931 0.0027227672 252 61
0.073216125 0.013700959 0.37181547 0.0028752559 241 58
0.072561286 0.013267869 0.36000991 0.0024910558 270 66
0.07400544 0.013229365 0.35890463 0.0022086718 339 82
0.078331716 0.013696491 0.37150574 0.0027465892 238 58
0.079482481 0.013600261 0.36881468 0.0025350947 258 63
0.080972426 0.013564884 0.3677648 0.0024194736 305 74
0.078988582 0.012960957 0.35129493 0.0022241501 286 69
0.083993554 0.013505029 0.3659302 0.0025688591 269 65
0.08530321 0.013445204 0.36418718 0.0024741259 281 68
0.087813623 0.013573295 0.36752167 0.0028360654 232 56
0.0897571 0.013610557 0.36838278 0.0030241406 228 55
0.090996563 0.013541663 0.36635837 0.0032720088 198 48
0.092515886 0.013516174 0.36549607 0.0029603774 198 48
0.095422074 0.013690581 0.37002343 0.0036387518 193 47
0.096782096 0.013640912 0.36847857 0.0032439565 196 47
0.098081842 0.013584616 0.36674139 0.0032041711 213 52
0.099172287 0.013501744 0.36427379 0.0039053059 173 42
0.099435113 0.013310857 0.35888109 0.0033977719 197 48
0.10131478 0.013339128 0.35938424 0.0034105885 191 46
0.10337242 0.013389538 0.36046568 0.0032569054 202 49
0.10586651 0.013493972 0.36298099 0.0033874998 190 46
0.10671559 0.013388742 0.35983893 0.0035407322 199 48
0.10776398 0.013311382 0.35743207 0.0032233822 210 51
0.10856808 0.013206659 0.35427651 0.0035912828 205 50
0.1105032 0.013240597 0.35482353 0.003446518 196 47
0.11429267 0.013492443 0.36118239 0.0034171492 200 48
0.11406638 0.013269789 0.35481837 0.0032947983 213 52
0.11394533 0.013065587 0.34894058 0.0029860185 252 61
0.11413445 0.012902224 0.34414491 0.0026956806 290 70
0.11401149 0.01270863 0.3385343 0.0023809997 388 94
0.11511218 0.012654884 0.33663684 0.0020963612 410 100
0.11502972 0.012474286 0.33135274 0.0017535418 559 136
0.11642069 0.012456172 0.33037105 0.0015616297 627 153
0.11786641 0.012444317 0.32953513 0.0014422197 717 175
0.12124336 0.012634011 0.33400667 0.0015714576 600 146
0.12307294 0.012659655 0.33410957 0.0019519248 451 110
0.1247957 0.012673802 0.33388469 0.0023104157 378 92
0.12765619 0.012801686 0.33662665 0.0025597073 311 76
0.13020577 0.01289561 0.33844161 0.0029921047 244 59
0.13230093 0.012942784 0.33899963 0.003056766 217 53
0.13353784 0.012905866 0.33733195 0.0036902805 195 47
0.13489109 0.012880944 0.33595905 0.0039575179 175 42
0.13704717 0.012932365 0.33655414 0.0037947423 171 41
0.1386307 0.012929188 0.33570477 0.0038152735 179 43
0.1412238 0.013019157 0.33724871 0.0041977158 163 39
0.14279538 0.013013975 0.33630404 0.0039893114 159 38
0.14465871 0.013035201 0.33602351 0.0044257697 150 36
0.14628631 0.013034947 0.33517274 0.0044592628 146 35
0.14746061 0.012994753 0.33328456 0.0044131815 144 35
0.14777561 0.012880535 0.32949764 0.0049049812 135 33
0.15052976 0.012979093 0.33114746 0.004470956 138 33
0.15194556 0.012961381 0.32982147 0.0046793693 135 33
0.15350981 0.012956575 0.32882541 0.0043707374 147 35
0.15435162 0.012891528 0.3263095 0.004305718 147 35
0.15483437 0.01279815 0.3230961 0.0039911615 162 39
0.15574621 0.012741785 0.32084116 0.0040179142 175 42
0.15355679 0.012435416 0.31233361 0.0038332706 172 42
0.15449274 0.012385753 0.31032076 0.0036354174 181 44
0.15518922 0.012318068 0.30789354 0.0041381391 171 41
0.15609823 0.012268417 0.30595958 0.003701475 181 44
0.15679924 0.012203544 0.30369332 0.0038894599 167 40
0.15843457 0.012211939 0.30329964 0.0043973802 172 42
0.16061679 0.012261925 0.30398747 0.0042410139 150 36
-0.1157369 0.008801762 0.19326133 0.0042418186 165 40
-0.11738402 0.0090031466 0.19746202 0.0038859742 184 44
-0.11792385 0.0091223344 0.19989237 0.0034190516 197 48
-0.11613625 0.0090619838 0.19842893 0.0032136491 217 53
-0.11472353 0.009030086 0.19763267 0.0036744748 197 48
-0.11347669 0.0090107955 0.19715677 0.0031988721 224 54
-0.11396154 0.009129894 0.19975354 0.0031756992 230 56
-0.11282644 0.0091201877 0.19957797 0.0030713386 243 59
-0.11166932 0.0091085071 0.19940539 0.0028951827 254 62
-0.11083276 0.0091229985 0.19985189 0.0029505475 252 61
-0.11034778 0.009166969 0.20099081 0.0026038939 281 68
-0.10977538 0.0092044268 0.20203355 0.0024191944 313 76
-0.10920341 0.009242625 0.20313808 0.0024552161 329 80
-0.11691607 0.0099893939 0.21988353 0.002487387 313 76
-0.11812306 0.010189305 0.22466658 0.0027542848 282 68
-0.11759325 0.010241821 0.22624956 0.0036215698 214 52
-0.11560019 0.010166677 0.22504802 0.0034567951 190 46
-0.11302225 0.010038103 0.22268696 0.0026012131 274 66
-0.11225823 0.010069673 0.22390226 0.002429314 325 79
-0.11242718 0.010186411 0.22704351 0.0024249442 319 77
-0.11187251 0.010239296 0.22879121 0.0025059255 304 74
-0.11102568 0.01026625 0.22998039 0.0026196099 330 80
-0.1099823 0.010275404 0.23078533 0.0022821794 354 86
-0.10967618 0.010354351 0.23317178 0.0023971885 322 78
-0.10844599 0.010346808 0.23361991 0.002513882 324 79
-0.10792206 0.010407212 0.23560731 0.0023228289 347 84
-0.10744432 0.010473425 0.2377328 0.0024559954 336 82
-0.10729335 0.010573293 0.24062833 0.0023864822 316 77
-0.1066803 0.01062933 0.24252951 0.0023208868 333 81
-0.10652667 0.010732914 0.24551658 0.0026348073 292 71
-0.10452719 0.01065076 0.24424605 0.0025080692 304 74
-0.10382003 0.010699915 0.2459732 0.002468074 306 74
-0.10282853 0.010720562 0.24703594 0.0023922978 319 77
-0.10249162 0.01081074 0.24969281 0.0026477212 309 75
-0.10170712 0.010855288 0.25128791 0.0025710659 294 71
-0.10009327 0.010811323 0.25081834 0.0026850861 271 66
-0.097881809 0.010700958 0.24878445 0.0028122037 272 66
-0.097408019 0.010780185 0.25114021 0.0028768869 271 66
-0.09742862 0.010916781 0.25482568 0.0026890433 268 65
-0.097454987 0.011057479 0.25860232 0.0027269989 262 64
-0.096484758 0.01108725 0.25977471 0.0027998856 263 64
-0.095291033 0.011091776 0.26033959 0.0029727956 234 57
-0.094035015 0.011089077 0.26071751 0.0029127863 244 59
-0.09261401 0.01106659 0.26061177 0.0029917429 232 56
-0.090872951 0.011004739 0.25955892 0.0032402549 227 55
-0.090442754 0.011102113 0.26224586 0.0029903718 238 58
-0.08903759 0.011080845 0.26211637 0.0029965544 245 59
-0.087919712 0.011095234 0.26281375 0.0029985958 233 56
-0.08719907 0.011160878 0.26471153 0.0030191122 240 58
-0.086819232 0.011272665 0.26769325 0.0035148247 221 54
-0.085894048 0.011315883 0.26903543 0.0031679634 217 53
-0.084910788 0.011352622 0.27021036 0.0031148489 237 57
-0.083667062 0.011355117 0.27055624 0.003148387 220 53
-0.083021484 0.011440113 0.27285534 0.0033200216 205 50
-0.082117334 0.011491567 0.27434316 0.0032577836 215 52
-0.081007794 0.011515454 0.27516049 0.0032916944 210 51
-0.079811923 0.011527637 0.27568519 0.003760396 198 48
-0.078809679 0.011568642 0.27688688 0.0035528352 205 50
-0.0781634 0.011664124 0.27938196 0.0031760582 220 53
-0.076872341 0.011664988 0.27959976 0.0032577196 211 51
-0.075936653 0.011720732 0.28112155 0.0034363174 198 48
-0.074996024 0.01177765 0.28266129 0.0034398318 193 47
-0.074107975 0.01184499 0.28444129 0.0033776879 198 48
-0.072861589 0.011856458 0.28486937 0.0038153538 180 44
-0.072009109 0.011933628 0.28686619 0.0037354608 176 43
-0.071018249 0.011990329 0.28836197 0.0037252021 182 44
-0.070337921 0.012102636 0.29118651 0.0037185475 176 43
-0.069322743 0.012160581 0.29269478 0.0039058686 184 44
-0.0683726 0.012232466 0.29453015 0.0037003076 178 43
-0.067254603 0.012276629 0.29568967 0.0036627592 182 44
-0.066232607 0.012340507 0.29731596 0.0040259734 168 41
-0.064788766 0.012326829 0.29706532 0.0042849989 163 39
-0.063576669 0.012357605 0.29787782 0.0038915572 172 42
-0.062462784 0.012409251 0.29918599 0.0042752302 163 39
-0.062350761 0.01266676 0.30545136 0.0045799171 158 38
-0.06121188 0.012722741 0.30685097 0.004790294 147 35
-0.059746444 0.012711891 0.30663189 0.0042973328 153 37
-0.058313433 0.012707584 0.30656394 0.004228625 148 36
-0.057630625 0.012870602 0.31052673 0.0043647117 147 35
-0.056481577 0.012935146 0.31210807 0.0046598017 140 34
-0.055124756 0.012954236 0.31258714 0.0043919804 146 35
-0.054017868 0.013034657 0.31454092 0.0046147262 139 33
-0.05321683 0.013195354 0.31842694 0.004650603 132 32
-0.052339599 0.01334573 0.32205936 0.0047183107 133 32
-0.050511844 0.013255442 0.31987959 0.0052542943 130 31
-0.048924215 0.013224637 0.31913114 0.0048820083 129 31
-0.048710577 0.013574831 0.32757288 0.0049981647 123 30
-0.046731956 0.01343982 0.32430249 0.0051405155 123 30
-0.045226168 0.013436365 0.32420346 0.0050097527 126 30
-0.044177528 0.013573131 0.32748485 0.0048224228 124 30
-0.043366693 0.013795215 0.33282155 0.0049698669 126 30
-0.042168744 0.013905926 0.33546844 0.0049570478 122 29
-0.040520988 0.013871088 0.33460188 0.0048032352 129 31
-0.03945414 0.014040214 0.3386535 0.0049399119 127 31
-0.038259223 0.014175823 0.34189454 0.0055344584 112 27
-0.037789766 0.014603428 0.35217556 0.0065320912 96 23
-0.036134783 0.014590724 0.35183635 0.0073706121 92 22
-0.034769416 0.014699269 0.35442001 0.0075166756 76 18
-0.033058815 0.014665366 0.35356843 0.0076630707 75 18
-0.031064985 0.014495786 0.34944621 0.0068529989 80 19
-0.029590374 0.014563183 0.35103717 0.0067429459 89 21
-0.027956467 0.014555451 0.35081729 0.0062747006 93 22
-0.026066201 0.014405092 0.34716082 0.0057730195 101 24
-0.025039131 0.014743309 0.35527927 0.0060064751 99 24
-0.023271644 0.014662404 0.35329843 0.0057705184 105 25
-0.021522896 0.014582006 0.35133132 0.0053844987 110 26
-0.019749342 0.014470335 0.34861249 0.005396497 108 26
-0.018087406 0.014427891 0.34756336 0.0052003986 115 28
-0.0164844 0.014428771 0.3475596 0.005414167 111 27
-0.015049465 0.014592811 0.35148773 0.0054259654 109 26
-0.013510467 0.014683391 0.35364801 0.0064554736 106 25
-0.01175253 0.014528225 0.34989178 0.0057935291 115 28
-0.010151602 0.01454863 0.35036629 0.0051265745 121 29
-0.0085792281 0.014625441 0.35220143 0.0044548349 137 33
-0.0068824268 0.014476462 0.34860173 0.0044248598 141 34
-0.0053433548 0.014669565 0.35324195 0.0043895757 148 36
-0.0037225808 0.01470949 0.3541961 0.0040670633 152 37
-0.0020781395 0.014645185 0.35264301 0.0037581923 169 41
-0.00044803042 0.014581989 0.35111934 0.0038761636 179 43
0.0011714067 0.0145608 0.35060969 0.0035786082 184 44
0.0027767448 0.014490622 0.34892303 0.0037336152 190 46
0.0044330251 0.014640213 0.35253087 0.003673913 188 45
0.0060773129 0.01468049 0.35350913 0.0039345622 165 40
0.0077653448 0.014787011 0.35608512 0.0040799584 169 41
0.0094979871 0.014926419 0.35945579 0.0043530893 147 35
0.011090291 0.014836612 0.35730901 0.0050144759 140 34
0.012889401 0.015010905 0.361525 0.0048387824 133 32
0.01476355 0.015222614 0.3666448 0.0053900685 114 27
0.016435388 0.015203626 0.3662107 0.0056040231 107 26
0.017879609 0.014997257 0.36126465 0.0056304745 113 27
0.019610113 0.015045744 0.36245945 0.0053327205 117 28
0.021612667 0.015278935 0.36810604 0.0051089372 117 28
0.023524534 0.015418698 0.37150413 0.0052943579 112 27
0.025185464 0.015386177 0.37075266 0.0063068066 104 25
0.026819998 0.015342694 0.36973813 0.0054016206 109 26
0.028502697 0.015330316 0.36947399 0.0051910602 116 28
0.03009831 0.015275139 0.36817893 0.0048707705 124 30
0.031364474 0.015067587 0.36321113 0.0050973492 119 29
0.033005148 0.015051873 0.36286739 0.0054285182 118 28
0.034745496 0.015080942 0.36360329 0.0049713114 121 29
0.037098713 0.015361095 0.3703934 0.0049344972 124 30
0.038568709 0.015266978 0.36815888 0.0049079088 125 30
0.04100487 0.015547124 0.3749491 0.0062084645 101 24
0.042005342 0.015282275 0.36859468 0.0047367113 128 31
0.043442558 0.015190739 0.36641824 0.004739197 125 30
0.045220833 0.01522085 0.36717424 0.0048360652 127 31
0.047268305 0.015336127 0.36998296 0.0046865325 133 32
0.049469989 0.015491669 0.37376118 0.0051428806 117 28
0.050816145 0.015377849 0.3710379 0.0058293878 110 26
0.052343316 0.015324434 0.36976874 0.0053339982 111 27
0.053567354 0.015188435 0.36650333 0.0048404671 128 31
0.054822706 0.015069358 0.36364216 0.0049574948 130 31
0.057309505 0.015285797 0.36887336 0.0053470633 124 30
0.058975935 0.01527726 0.36867112 0.0046036281 128 31
0.060440332 0.015218331 0.36724779 0.0043072118 147 35
0.062407505 0.015285757 0.36886856 0.0050892658 135 33
0.06429147 0.01532977 0.36991847 0.0050181183 128 31
0.06584911 0.01529571 0.36907825 0.0050713685 120 29
0.067868747 0.015367975 0.3707971 0.0053411252 107 26
0.069256954 0.015297227 0.3690584 0.0045426278 133 32
0.071057834 0.015318831 0.36954051 0.0047328728 126 30
0.072333112 0.015228768 0.36732128 0.00443163 143 34
0.074751735 0.015378034 0.37086633 0.0049153017 128 31
0.076850757 0.015456347 0.37269062 0.0051485389 130 31
0.078051828 0.015354587 0.37016395 0.0043620928 141 34
0.079149529 0.015237284 0.36725408 0.0042120269 152 37
0.081094086 0.015284509 0.3683002 0.0041717691 144 35
0.082530707 0.015236027 0.36702964 0.0041137063 153 37
0.083801188 0.015159439 0.36507207 0.0039989571 160 39
0.085480653 0.015158396 0.36492312 0.0041551576 147 35
0.087215163 0.015166969 0.36499378 0.0043532955 157 38
0.087992579 0.015011929 0.36111635 0.0039226552 166 40
0.08958035 0.014998338 0.36063057 0.0043401513 161 39
0.09212587 0.015142673 0.36392742 0.0043752873 144 35
0.093845859 0.015148566 0.3638818 0.004280576 146 35
0.095681138 0.015172534 0.36425564 0.0036715001 176 43
0.096817598 0.015086777 0.36198154 0.0043790205 163 39
0.098528519 0.015091932 0.36187479 0.0041671921 150 36
0.0997952 0.015030008 0.36014479 0.003790146 169 41
0.10138187 0.015017523 0.35958466 0.0037793352 180 44
0.10252566 0.014940904 0.35747388 0.0037959558 197 48
0.10369489 0.014870375 0.35549465 0.003615624 211 51
0.10424958 0.014715314 0.35148183 0.0029640645 256 62
0.10514782 0.01461279 0.34871149 0.0029601539 248 60
0.10596038 0.014501661 0.34572259 0.0026896901 341 83
0.10698497 0.014422444 0.34348044 0.0023678078 378 92
0.10681742 0.014187231 0.33751234 0.0021503316 442 108
0.10750515 0.014070805 0.33436048 0.0018022746 484 118
0.10770775 0.013895134 0.32978961 0.0014590145 703 171
0.10935888 0.013908658 0.32969421 0.0015587091 666 162
0.11143988 0.01397572 0.33084545 0.0015065531 629 153
0.1134735 0.014035075 0.33178976 0.0015857209 580 141
0.11517827 0.014052694 0.33172399 0.0017902495 509 124
0.11662292 0.014038533 0.33088666 0.0021880053 342 83
0.12331183 0.014647688 0.34469694 0.0025820297 285 69
0.1243795 0.014581944 0.34258226 0.0029737188 231 56
0.12528664 0.014499315 0.34005389 0.0035381245 202 49
0.12730427 0.014545667 0.34052902 0.0036830469 189 46
0.12942228 0.014602182 0.34121472 0.0036865971 172 42
0.12995608 0.014480772 0.33772263 0.0037269341 174 42
0.13263507 0.014598442 0.33978367 0.0043702829 165 40
0.13443187 0.014617344 0.33951673 0.0040767272 152 37
0.13601694 0.014613045 0.33868808 0.0042476235 151 36
0.13755769 0.014604143 0.3377316 0.0041838316 152 37
0.13899501 0.014584597 0.33650973 0.0047425339 147 35
0.14079055 0.014602655 0.33613577 0.0043195011 142 34
0.14299473 0.014662202 0.33669403 0.0046107108 146 35
0.14448795 0.014648331 0.33554685 0.004605446 135 33
0.14605132 0.014641798 0.33455387 0.0044307751 141 34
0.14761727 0.014635666 0.33355799 0.0046337675 138 33
0.14898609 0.014610338 0.33211628 0.0043105418 151 36
0.15018047 0.014568632 0.33029923 0.0041906415 153 37
0.15254995 0.014640596 0.33105388 0.0040514143 169 41
0.15208593 0.014441972 0.32569796 0.0037826058 171 41
0.15025851 0.014119383 0.31758207 0.0040146774 172 42
0.14822491 0.013784289 0.30923313 0.0036908102 179 43
0.15037128 0.013840797 0.30969965 0.0036142149 182 44
0.15195216 0.013844636 0.30900335 0.0036320954 185 45
0.15298337 0.01379882 0.30722573 0.0036547093 177 43
0.15419923 0.013770402 0.30586973 0.0036219787 183 44
0.15513837 0.013718074 0.30402249 0.0041909111 168 41
0.1560283 0.013662457 0.30214879 0.0043405481 163 39
0.15573652 0.013505436 0.29808831 0.0038921258 164 40
0.16339485 0.014034259 0.3092021 0.0042886054 150 36
-0.1187392 0.010034 0.19829419 0.004026833 182 44
-0.11812073 0.01006685 0.19871788 0.0038312352 180 44
-0.11684763 0.010043993 0.1980814 0.0036531012 190 46
-0.11639506 0.010091881 0.19888116 0.0033352775 205 50
-0.11456575 0.010020198 0.19736734 0.0034396213 219 53
-0.11543605 0.010185448 0.20056385 0.0031792859 207 50
-0.11394944 0.010143825 0.19973129 0.003239146 221 54
-0.1133032 0.010176939 0.20041633 0.0030595951 233 56
-0.11290914 0.010233508 0.20161022 0.0029446627 237 57
-0.11267455 0.010305701 0.20315973 0.0028091338 246 60
-0.11151822 0.010294141 0.20310526 0.0027522314 282 68
-0.11041696 0.010287496 0.20319286 0.002519842 305 74
-0.10957836 0.010305428 0.20380993 0.0024420263 297 72
-0.10815062 0.010267769 0.20336904 0.0023482123 322 78
-0.10731319 0.010285968 0.20407337 0.0022543257 348 85
-0.11359461 0.010993468 0.21851689 0.0026065898 291 71
-0.11672202 0.011406579 0.22718759 0.0031930662 242 59
-0.11638992 0.011486433 0.22927412 0.0035240899 193 47
-0.11359459 0.011322361 0.22651727 0.003040303 239 58
-0.11225277 0.011301318 0.22663832 0.0024920546 292 71
-0.11165345 0.011355364 0.22828764 0.0024773169 309 75
-0.11103781 0.011408839 0.22994764 0.0024580741 312 76
-0.11045288 0.011466616 0.23171295 0.0023919314 330 80
-0.10916144 0.011451491 0.23201632 0.0024008988 328 80
-0.10972221 0.011632408 0.23630618 0.0023392397 333 81
-0.1086534 0.01164259 0.23714004 0.0023679507 324 79
-0.10781045 0.011677459 0.23847842 0.0024721245 322 78
-0.10680959 0.011695798 0.2394786 0.0025010065 306 74
-0.10679716 0.011823977 0.24272972 0.0025859841 317 77
-0.10577866 0.011842394 0.24372727 0.0025236188 296 72
-0.10453685 0.011835945 0.24420375 0.0024816834 318 77
-0.10320276 0.011818779 0.24444652 0.0024088488 319 77
-0.10264373 0.011891004 0.24652806 0.0025066182 312 76
-0.10219712 0.011978098 0.24891184 0.0026034589 287 70
-0.10151979 0.012039899 0.25076219 0.0025873159 286 69
-0.10035323 0.012044465 0.25140798 0.0024962353 294 71
-0.098941818 0.012019399 0.25141811 0.0027106537 272 66
-0.097612038 0.012003751 0.25160697 0.00264329 275 67
-0.096696764 0.012039325 0.25285339 0.0027430567 264 64
-0.095986329 0.012101621 0.25464803 0.0026907029 274 66
-0.096192978 0.012282609 0.25893256 0.0031335545 255 62
-0.094401598 0.012209856 0.25785473 0.0030322659 256 62
-0.092208482 0.012082556 0.25560042 0.0028780822 251 61
-0.091533646 0.012153463 0.25751993 0.0030451748 246 60
-0.09160836 0.012327141 0.26160842 0.0031882727 239 58
-0.090344042 0.012322917 0.26191008 0.0032527165 252 61
-0.088951789 0.012300882 0.26181582 0.0028084186 260 63
-0.087797657 0.012311622 0.26240236 0.0029573194 244 59
-0.08720959 0.012403174 0.26469809 0.0030794526 224 54
-0.086572342 0.012490274 0.26688781 0.0031461252 215 52
-0.085609704 0.012532292 0.26810196 0.003137415 224 54
-0.084452622 0.012546672 0.26871097 0.0031916306 218 53
-0.08372917 0.012626879 0.27071697 0.0033789868 221 54
-0.082732841 0.012667762 0.27186787 0.0031343743 219 53
-0.081658743 0.012697823 0.27277374 0.0035444293 212 51
-0.080698274 0.012746785 0.27407309 0.0032984002 209 51
-0.079741858 0.012797969 0.27540857 0.0032994049 211 51
-0.079111904 0.01290407 0.27791521 0.003214726 220 53
-0.077867068 0.012911737 0.27829075 0.0032273736 212 51
-0.076713935 0.012935125 0.27899298 0.0033719817 195 47
-0.075961046 0.01302796 0.28118253 0.0032723884 208 50
-0.07512185 0.013108974 0.28310734 0.0035498946 192 46
-0.07388293 0.013121879 0.28355083 0.003361397 199 48
-0.072563 0.013120599 0.28367668 0.0037164558 199 48
-0.071677625 0.013199297 0.28552166 0.0036569331 180 44
-0.070703812 0.013264354 0.28706247 0.0037889068 188 45
-0.069753826 0.013336461 0.28874692 0.0036760478 179 43
-0.069067344 0.01346274 0.29159611 0.0038303658 184 44
-0.067962036 0.01351078 0.29274258 0.0039257524 181 44
-0.066974074 0.013584572 0.2944386 0.004128309 166 40
-0.065682672 0.013598599 0.29483095 0.0039089997 169 41
-0.064284794 0.013590707 0.29473948 0.0036604714 182 44
-0.063312627 0.013674424 0.29662693 0.0041864715 166 40
-0.062151067 0.013720026 0.29768038 0.0042275055 161 39
-0.060735479 0.013710347 0.29752696 0.0042436332 163 39
-0.060932647 0.014072692 0.30544099 0.0044833324 163 39
-0.059621383 0.014095561 0.30598113 0.0043506688 151 36
-0.058215529 0.014096631 0.30604157 0.0042669256 150 36
-0.056909911 0.014122629 0.30663687 0.0043244995 146 35
-0.056118697 0.014280856 0.31009758 0.0045818021 138 33
-0.054761391 0.014299527 0.31052265 0.0043623871 144 35
-0.053243045 0.014276021 0.31002641 0.0045422101 141 34
-0.051868234 0.014290768 0.31035587 0.0043951622 145 35
-0.051475469 0.014584594 0.31674162 0.0049799774 137 33
-0.050444778 0.014709551 0.31945559 0.0046062958 135 33
-0.049252015 0.014793333 0.32127124 0.0045944168 133 32
-0.046942107 0.014536366 0.31568301 0.0045865523 138 33
-0.046075594 0.014724229 0.31975162 0.0050353664 133 32
-0.0450904 0.014885322 0.32323542 0.0048254342 126 30
-0.043884777 0.014982169 0.32532093 0.0045974767 138 33
-0.042575926 0.015049373 0.32676002 0.0053509953 118 28
-0.041547995 0.015224447 0.33053863 0.0051929159 125 30
-0.040169321 0.015279428 0.33170751 0.0053187655 127 31
-0.038619824 0.015271216 0.33150262 0.0047965059 128 31
-0.037439264 0.01541422 0.33457869 0.0049926289 122 29
-0.036342204 0.015605368 0.33869782 0.0052149622 117 28
-0.035724577 0.016028786 0.3478561 0.0058836285 116 28
-0.034227151 0.016078711 0.34890717 0.0056767701 111 27
-0.032531787 0.016035987 0.34794739 0.006197264 104 25
-0.03105632 0.016102849 0.34936523 0.0063770409 97 23
-0.029679198 0.01623081 0.35210827 0.0071834754 82 20
-0.02805358 0.016229823 0.35205406 0.0086129289 70 17
-0.02669242 0.016391112 0.35552007 0.0072429953 80 19
-0.025169209 0.016467487 0.35714465 0.0068701026 83 20
-0.023518011 0.016464964 0.35705903 0.0064277393 92 22
-0.021688841 0.016328076 0.35406098 0.0059906458 100 24
-0.019779539 0.016103648 0.34916666 0.0063997633 92 22
-0.018137556 0.016076351 0.34854862 0.0064185984 98 23
-0.016677037 0.016220238 0.35164344 0.0056396914 101 24
-0.015117826 0.016288809 0.35310706 0.0058423053 111 27
-0.013550842 0.016364567 0.35472819 0.0058070016 114 27
-0.011850754 0.016278312 0.35283956 0.0054303724 118 28
-0.010202998 0.016247906 0.35216382 0.0051728589 114 27
-0.0085908081 0.01627335 0.35270089 0.0049992856 121 29
-0.0070060086 0.016374709 0.35488561 0.0054503907 114 27
-0.0053813742 0.016416425 0.35578004 0.0054831351 117 28
-0.0037302936 0.016378669 0.3549546 0.0052801212 115 28
-0.0020892879 0.01636065 0.35455957 0.0049433899 119 29
-0.00045196011 0.016345251 0.35422382 0.0053344076 134 32
0.0011758913 0.016241528 0.35197657 0.0049467292 139 33
0.0027984725 0.016227597 0.35167781 0.0045190067 142 34
0.0044317306 0.016263077 0.3524524 0.0047240132 147 35
0.0060599521 0.016265983 0.3525236 0.0043003149 155 37
0.0076554026 0.016198313 0.35106763 0.0036998091 182 44
0.0092910919 0.016224559 0.35164955 0.0038088441 171 41
0.010924221 0.016239194 0.35198218 0.0038781611 163 39
0.012530468 0.01621525 0.35148087 0.0039978554 170 41
0.014327456 0.016415332 0.35583779 0.0040239599 161 39
0.016058726 0.016506707 0.35784081 0.0042779106 148 36
0.017566925 0.01637313 0.35496899 0.0042322977 157 38
0.018954307 0.016159341 0.35035947 0.0040917811 160 39
0.020715943 0.016273146 0.35285419 0.004395368 150 36
0.022458162 0.016356224 0.35468435 0.0045588585 151 36
0.024372039 0.016544545 0.35879856 0.0048249438 154 37
