# .PCD v0.7 - Point Cloud Data file format
VERSION 0.7
FIELDS x y z noise intensity gray
SIZE 4 4 4 4 2 1
TYPE F F F F U U
COUNT 1 1 1 1 1 1
WIDTH 933
HEIGHT 1
VIEWPOINT 0 0 0 1 0 0 0
POINTS 933
DATA ascii
0.13860366 -0.19402334 0.56567526 0.0019597288 436 101
0.14133157 -0.19401699 0.56485808 0.0020784601 423 98
0.14390896 -0.19380823 0.56343186 0.001933743 431 100
0.14678204 -0.19399798 0.56314445 0.0019372018 435 101
0.15015377 -0.19482781 0.56469089 0.0020361366 407 95
0.15315013 -0.19514954 0.56474096 0.0019688713 414 96
0.1557276 -0.19493559 0.56322217 0.0021130494 413 96
0.15895434 -0.19552775 0.56401354 0.002038907 404 94
0.16105948 -0.19474353 0.56081992 0.0022087013 408 95
0.16286767 -0.19363251 0.55667996 0.0019571197 429 100
0.16201678 -0.18944882 0.54371965 0.0018332489 471 109
0.16474591 -0.189519 0.54297739 0.0018108049 500 116
0.16677476 -0.18879421 0.53995228 0.0017621537 493 115
0.16920483 -0.1885393 0.5382694 0.0017347432 512 119
0.17219324 -0.18890475 0.53835332 0.0017515408 502 117
0.17427774 -0.1882825 0.53562254 0.0017715568 490 114
0.17669952 -0.18803786 0.5339722 0.0018079201 489 114
0.17973289 -0.18844168 0.53416759 0.0018618475 487 113
0.18235131 -0.18840501 0.53312099 0.001834444 461 107
0.18484025 -0.18823752 0.53171754 0.0019991365 451 105
0.18712847 -0.18787324 0.52977717 0.0018680458 455 106
0.18979611 -0.18789475 0.52894646 0.0019432637 452 105
0.19208513 -0.18754601 0.52709943 0.0019124048 442 103
0.19359976 -0.18646087 0.52321804 0.0020438677 425 99
0.19556981 -0.18583754 0.52067298 0.0019136363 441 102
0.19772767 -0.1854068 0.51870924 0.0020770789 413 96
0.20050533 -0.18556085 0.51842403 0.0020982896 381 88
0.20217144 -0.1846955 0.51533914 0.0021040593 382 89
0.19970861 -0.18012802 0.5019924 0.0019286252 440 102
0.19691536 -0.17538084 0.48822635 0.0017191529 523 122
0.19768621 -0.17388627 0.4835875 0.0016479946 555 129
0.199597 -0.17341873 0.48186663 0.0017145207 560 130
0.2014793 -0.17293799 0.48017013 0.0016269027 562 131
0.20368557 -0.17274353 0.4793309 0.0017360033 542 126
0.20601106 -0.17265359 0.47884491 0.001730909 508 118
0.20889683 -0.17302981 0.47971612 0.0019361187 466 108
0.21245304 -0.17394628 0.48214984 0.0020726956 398 92
0.21698032 -0.17562783 0.48677033 0.0022522244 344 80
0.22093588 -0.17681397 0.4900853 0.0024047096 315 73
0.22192864 -0.17562896 0.4868961 0.0026039265 300 70
0.22122021 -0.17313862 0.48015305 0.002538699 303 70
0.22160438 -0.17154841 0.47596818 0.0026194423 280 65
0.22198489 -0.16998972 0.47193104 0.0027758712 276 64
0.22140765 -0.16773865 0.466028 0.0023446847 333 77
0.22025758 -0.16510573 0.45911452 0.0022829638 336 78
0.22222912 -0.16484335 0.45884493 0.0024002579 323 75
0.22467983 -0.16493815 0.45962706 0.0028100158 269 62
0.22734095 -0.16518389 0.46088737 0.0042223828 162 37
nan nan nan 0 63 14
nan nan nan 0 66 15
0.32013306 -0.22567777 0.63247466 0.0071275239 82 19
0.32960209 -0.23006877 0.6458748 0.0065790862 87 20
0.34135717 -0.23595454 0.66358912 0.0093818419 63 14
0.33912253 -0.23214993 0.6541267 0.017625699 37 8
0.33783156 -0.22905782 0.64669776 0.021433081 24 5
-0.35133424 -0.20794676 0.6127212 0.041380398 14 3
nan nan nan 0 15 3
-0.36682835 -0.22085194 0.64871317 0.014332211 43 10
nan nan nan 0 44 10
-0.36053583 -0.22086239 0.64579493 0.026348922 20 4
-0.36040971 -0.2227342 0.64966136 0.018442318 25 5
-0.36074466 -0.22492686 0.65441954 0.013636622 39 9
-0.36019221 -0.22660066 0.65765303 0.0098956879 59 13
-0.35816437 -0.22736818 0.65826929 0.0081670592 70 16
-0.35187885 -0.22542217 0.65107852 0.0093249874 69 16
-0.34604016 -0.22372916 0.64469105 0.010652038 51 11
nan nan nan 0 54 12
nan nan nan 0 35 8
nan nan nan 0 25 5
nan nan nan 0 48 11
nan nan nan 0 54 12
nan nan nan 0 36 8
nan nan nan 0 16 3
-0.34598392 -0.24153887 0.68534511 0.019825051 25 5
-0.33912688 -0.23913664 0.67752981 0.0089087086 65 15
-0.32895362 -0.23432322 0.66299152 0.0064000357 92 21
-0.32568869 -0.23438242 0.6623385 0.0079021389 74 17
-0.32026702 -0.23287469 0.65734476 0.0088023059 65 15
nan nan nan 0 53 12
nan nan nan 0 43 10
-0.30872226 -0.23170003 0.65235275 0.0096996929 71 16
-0.30845341 -0.23400697 0.65846223 0.011475272 57 13
-0.30875221 -0.23679985 0.66602314 0.012061164 55 12
nan nan nan 0 41 9
-0.31161943 -0.24435307 0.68694395 0.026327224 29 6
nan nan nan 0 48 11
nan nan nan 0 83 19
nan nan nan 0 75 17
nan nan nan 0 82 19
nan nan nan 0 68 15
-0.21665342 -0.18212666 0.51301461 0.0073631182 80 18
nan nan nan 0 83 19
-0.18642475 -0.16057171 0.45307541 0.0033068398 222 51
-0.18254288 -0.15918675 0.44963309 0.001960489 425 99
-0.18041719 -0.15931767 0.4505187 0.0016957104 542 126
-0.18148315 -0.16230629 0.45954296 0.0018712491 491 114
-0.18108597 -0.16404684 0.46509457 0.0018788696 445 103
-0.17732435 -0.16274519 0.46206334 0.0017844206 517 120
-0.17801517 -0.16554959 0.4707332 0.0019233333 469 109
-0.17582361 -0.16571288 0.47193906 0.0018266127 473 110
-0.17139687 -0.16374524 0.46709689 0.0018163029 518 120
-0.16924201 -0.16392364 0.46839303 0.0017245744 519 121
-0.16745144 -0.16446485 0.47075033 0.0018880264 500 116
-0.16506098 -0.16442385 0.47146076 0.0018118313 486 113
-0.16300862 -0.16472337 0.47316232 0.0018334456 476 111
-0.16383182 -0.16798 0.48338652 0.0019640604 449 104
-0.16475944 -0.17144214 0.49424368 0.001941563 445 103
-0.16519563 -0.17448962 0.50394326 0.0020843777 399 93
-0.16120853 -0.17288677 0.50022054 0.0019963479 435 101
-0.15787458 -0.17194544 0.49839622 0.0018641523 492 114
-0.15498279 -0.17146349 0.49789152 0.0017395132 511 119
-0.15191667 -0.17077012 0.4967601 0.001814352 528 123
-0.14941211 -0.17069568 0.49741623 0.0016437193 545 127
-0.14836405 -0.17231034 0.50299162 0.0017926422 534 124
-0.14605722 -0.17249289 0.50438327 0.0017709429 511 119
-0.14431508 -0.17336002 0.50776815 0.0018909796 488 113
-0.14275415 -0.17447896 0.51188517 0.0018785478 443 103
-0.14477582 -0.1800942 0.52920926 0.0022780565 345 80
-0.14238977 -0.18033041 0.53073692 0.0023551602 355 82
-0.13737956 -0.17719077 0.52229756 0.0019068818 448 104
-0.13707654 -0.18011847 0.53172272 0.0019944715 427 99
-0.13498759 -0.18076661 0.53441465 0.0019224128 440 102
-0.13243887 -0.18081231 0.53530866 0.0019225611 458 106
-0.13331921 -0.18563445 0.55034345 0.0021674398 389 90
-0.13024098 -0.18502851 0.54928225 0.002094551 389 90
-0.1277912 -0.18530883 0.55082965 0.0020934502 395 92
-0.1251667 -0.18534224 0.55162352 0.0021799859 386 90
-0.1247732 -0.1887521 0.56245804 0.0023056129 332 77
-0.11976275 -0.18517397 0.55244756 0.0020837341 422 98
-0.11744833 -0.18569687 0.55464071 0.0019761024 421 98
-0.11498832 -0.18600844 0.55618477 0.0019753659 416 97
-0.11275371 -0.186708 0.55887192 0.0019509044 423 98
-0.10979777 -0.18621805 0.55797893 0.0019493147 432 100
-0.10679404 -0.18562071 0.55674094 0.0019786907 458 106
-0.10431946 -0.18593611 0.55822033 0.0020440544 427 99
-0.1020615 -0.18666418 0.56092221 0.0021109751 423 98
-0.10010812 -0.18800329 0.56544673 0.0019780279 415 96
-0.097404703 -0.18796884 0.56582493 0.001939631 425 99
-0.09470766 -0.18794511 0.56621671 0.0019023519 440 102
-0.092236765 -0.18838184 0.56797868 0.0018716927 444 103
-0.089515604 -0.18831831 0.56821549 0.0018999819 442 103
-0.086926341 -0.18853696 0.5692867 0.0018587386 477 111
-0.084279537 -0.18864076 0.56999481 0.0017801597 482 112
-0.081581183 -0.18863225 0.57034707 0.0019110275 478 111
-0.078808881 -0.18844634 0.57014632 0.0018592494 497 116
-0.076229185 -0.18872412 0.57133269 0.0018502632 486 113
-0.073698796 -0.18914883 0.57294953 0.0017997809 471 109
-0.0710596 -0.18931593 0.57377189 0.0019491673 469 109
-0.068631008 -0.19007958 0.57638878 0.0017980281 474 110
-0.066184513 -0.1908545 0.57902771 0.0018077544 471 109
-0.063483901 -0.19093177 0.57953668 0.0019090796 474 110
-0.060905721 -0.19140068 0.58122128 0.0018264843 480 112
-0.058403775 -0.19216451 0.58378935 0.0019060542 444 103
-0.055783309 -0.19259448 0.58533114 0.0019318402 440 102
-0.053248599 -0.19338053 0.58794314 0.0019713852 425 99
-0.050755393 -0.19441156 0.5912891 0.0021941354 387 90
-0.048321735 -0.19580323 0.59572154 0.0022502721 365 85
-0.045821257 -0.19707851 0.5997898 0.0022245422 349 81
-0.043232538 -0.19811636 0.60312515 0.0022807014 343 80
-0.040470116 -0.1984479 0.60429901 0.0024836368 323 75
-0.037824783 -0.19944674 0.60749394 0.0023736267 322 75
-0.03508395 -0.20006372 0.60951495 0.0024975282 334 77
-0.032136399 -0.19950682 0.60794771 0.0022592805 350 81
-0.029020321 -0.19769347 0.60253882 0.0023303204 361 84
-0.026036857 -0.19648995 0.59897548 0.0022359258 389 90
-0.023200762 -0.19624212 0.59831357 0.0020449213 401 93
-0.020406527 -0.19632891 0.59866083 0.0020654676 405 94
-0.017544057 -0.19568226 0.59676051 0.0020761234 433 101
-0.014729715 -0.19542901 0.59604889 0.0020142964 458 106
-0.01192269 -0.19517715 0.59533072 0.0019405966 424 99
-0.0091641461 -0.19580743 0.59729278 0.0020284634 407 95
-0.0063929725 -0.19660306 0.59974891 0.0021085024 372 86
-0.0035953871 -0.19719677 0.60157877 0.0021440627 372 86
-0.00077457045 -0.19620232 0.59855318 0.0023887651 361 84
0.0020159902 -0.19502933 0.59497249 0.0023646634 358 83
0.0046889251 -0.19044006 0.58095956 0.0023216642 367 85
0.0072973697 -0.18756315 0.57216096 0.0022662389 380 88
0.0098003931 -0.18424955 0.56202102 0.0020922804 389 90
0.012288012 -0.18211061 0.55545533 0.0022061625 385 89
0.014821692 -0.18128243 0.5528785 0.0020528289 400 93
0.017303493 -0.18016046 0.54939646 0.0022354848 387 90
0.019937554 -0.18070911 0.55099899 0.0020669175 397 92
0.022579685 -0.18119669 0.55240488 0.002293143 377 88
0.025313746 -0.18224584 0.55551183 0.0022257434 377 88
0.028246854 -0.18439873 0.56197107 0.00215335 367 85
0.030913275 -0.18459186 0.56244582 0.0021799298 385 89
0.034151055 -0.18789826 0.57239336 0.0022359868 359 83
0.037150402 -0.18950653 0.57715338 0.0022291241 345 80
0.040244151 -0.19134517 0.58260077 0.00233114 334 77
0.044052087 -0.19612968 0.59700024 0.0023560093 323 75
0.047320154 -0.19808213 0.60276115 0.0025918589 303 70
0.050271466 -0.1985631 0.60402924 0.0023997861 312 72
0.052925117 -0.19787979 0.60174292 0.002254803 348 81
0.05569632 -0.19768301 0.6009239 0.0021836557 370 86
0.058625448 -0.19803871 0.60177058 0.0021407809 376 87
0.061476666 -0.19811055 0.60174042 0.0021340365 372 86
0.064746141 -0.19946462 0.60558891 0.0021967578 364 85
0.067545742 -0.19931799 0.60486507 0.0022406033 355 82
0.07019417 -0.19875519 0.60286462 0.002222474 362 84
0.073002763 -0.19867203 0.6023047 0.0021874297 361 84
0.075739518 -0.1984069 0.60117829 0.0023158009 369 86
0.078102224 -0.19721641 0.59723467 0.0021303869 387 90
0.080701187 -0.19668457 0.59527248 0.0021485975 391 91
0.083298624 -0.19618493 0.59339339 0.0021499624 372 86
0.086268373 -0.19656616 0.59416199 0.0023833031 358 83
0.08861798 -0.19555487 0.59070557 0.0021087534 377 88
0.089943618 -0.19241484 0.58081025 0.0021533347 415 96
0.092514828 -0.19204664 0.57927185 0.0019613425 442 103
0.094425313 -0.19036758 0.57376635 0.0018035322 486 113
0.096841373 -0.18977328 0.57151747 0.001734802 514 120
0.09958037 -0.18982691 0.57120287 0.0017682987 527 123
0.10196759 -0.18922493 0.56889814 0.0016982621 565 131
0.10460471 -0.18910581 0.56802785 0.0015987408 579 135
0.10727488 -0.18905093 0.56733155 0.0016129056 574 134
0.10990404 -0.18892825 0.56641269 0.0016437025 552 128
0.1126226 -0.18896143 0.56594133 0.0017072273 525 122
0.11566616 -0.18952559 0.567038 0.0017112446 528 123
0.118422 -0.1896033 0.56665671 0.0018238338 517 120
0.12110031 -0.18955618 0.56588131 0.0018331594 516 120
0.12399175 -0.1898374 0.56606418 0.0017564105 494 115
0.12693346 -0.19018193 0.56641221 0.0019211104 485 113
0.1299213 -0.19057968 0.56689471 0.0019002946 463 108
0.13298251 -0.19106652 0.56761718 0.0018443178 467 109
0.13587783 -0.19130024 0.56756347 0.0018810362 452 105
0.13876835 -0.1915181 0.56743914 0.001930049 429 100
0.14136957 -0.19133598 0.56610829 0.0020628578 425 99
0.14394143 -0.19112179 0.56466287 0.0019591046 429 100
0.14658807 -0.19101301 0.5635094 0.0019363213 435 101
0.14960839 -0.19138625 0.56375647 0.0019643654 434 101
0.15265779 -0.19178265 0.56404823 0.0019328221 438 102
0.15483803 -0.19109237 0.56112635 0.0019550503 425 99
0.15743858 -0.19093575 0.55975705 0.0019564249 433 101
0.15648305 -0.18654522 0.54598051 0.0018468889 462 107
0.15908781 -0.18647492 0.54485428 0.0018189435 492 114
0.1614695 -0.18614978 0.54297143 0.001728877 508 118
0.16407442 -0.18608835 0.54184699 0.0017531031 495 115
0.16606075 -0.18533845 0.53871143 0.0017392597 509 118
0.16861746 -0.18523872 0.53746128 0.0017590967 513 119
0.171648 -0.18565454 0.53769916 0.0018632078 502 117
0.1740945 -0.18543565 0.53609395 0.0017666849 489 114
0.17646195 -0.18514039 0.53426957 0.0017748276 490 114
0.17872822 -0.18474922 0.53217441 0.0018135929 481 112
0.18192938 -0.18532178 0.53285974 0.0018591951 461 107
0.18457448 -0.18531962 0.53189868 0.0019720166 449 104
0.18715981 -0.18525834 0.53078127 0.0020132887 438 102
0.18952997 -0.18498877 0.5290857 0.0019435682 421 98
0.19144438 -0.18428788 0.52618259 0.0019892205 425 99
0.19313289 -0.1833915 0.52275437 0.0021536148 417 97
0.1954812 -0.18313728 0.52119178 0.0020199732 398 92
0.19768044 -0.18275195 0.51929319 0.0020592762 393 91
0.19982332 -0.18232521 0.51731908 0.0020313815 413 96
0.19650051 -0.17698658 0.5014739 0.0018640708 467 109
0.19464904 -0.17309196 0.48980132 0.001702758 525 122
0.19624951 -0.17232616 0.48704815 0.0016970686 567 132
0.19685335 -0.17071508 0.48196548 0.0015637821 593 138
0.19890024 -0.17037952 0.48054481 0.0016561252 595 138
0.20125344 -0.17031129 0.4799369 0.0016276169 574 134
0.20424983 -0.17078251 0.48090881 0.0017944588 528 123
0.20653197 -0.17065242 0.48024949 0.0018338449 486 113
0.20925784 -0.17088774 0.480683 0.0020201539 434 101
0.21382461 -0.17260367 0.4853456 0.0022574167 368 85
0.21670409 -0.17293394 0.48617804 0.0023826265 340 79
0.21924777 -0.17299184 0.48631337 0.0023866766 319 74
0.22105242 -0.17247182 0.48489308 0.0025977818 324 75
0.22076075 -0.17034569 0.4790248 0.0025850565 325 75
0.21993914 -0.16786146 0.4722133 0.002376568 319 74
0.22058667 -0.16654001 0.46873459 0.0024735886 317 74
0.21870537 -0.16335788 0.46007603 0.0022808986 336 78
0.21992376 -0.16253375 0.4581134 0.0022741589 344 80
0.22148581 -0.16197816 0.45696548 0.0023928452 316 73
0.22414631 -0.16222909 0.45815179 0.0026439631 282 65
0.2248857 -0.1610987 0.45549214 0.0033344235 230 53
nan nan nan 0 123 28
nan nan nan 0 81 18
nan nan nan 0 103 24
0.33056855 -0.22749373 0.64699817 0.0060804524 106 24
0.33760098 -0.23007163 0.65546852 0.0076811183 82 19
0.33598503 -0.22676289 0.64723176 0.014719094 38 8
0.3423503 -0.22885254 0.65446228 0.031132922 21 4
nan nan nan 0 38 8
-0.35554165 -0.20919979 0.62388921 0.036644846 12 2
nan nan nan 0 63 14
nan nan nan 0 60 14
nan nan nan 0 18 4
-0.3788676 -0.23079661 0.68188399 0.04316216 11 2
nan nan nan 0 12 2
-0.36401036 -0.22573145 0.66360343 0.021541515 23 5
-0.36126912 -0.22606309 0.66296905 0.013867181 39 9
-0.35924381 -0.22685291 0.66371727 0.0086102011 66 15
-0.35007891 -0.22310716 0.65126735 0.0090496512 65 15
nan nan nan 0 43 10
nan nan nan 0 45 10
nan nan nan 0 35 8
nan nan nan 0 53 12
nan nan nan 0 51 11
nan nan nan 0 29 6
nan nan nan 0 18 4
-0.35237622 -0.24248743 0.69728398 0.049520288 11 2
-0.34678367 -0.24104269 0.69215786 0.024559246 23 5
-0.33067915 -0.2321876 0.66587543 0.0098868534 56 13
-0.32339665 -0.22940846 0.65714347 0.0073114652 74 17
-0.32139426 -0.23035608 0.65917808 0.0094243083 63 14
nan nan nan 0 54 12
nan nan nan 0 59 13
-0.30558559 -0.22606981 0.64543349 0.0092398282 60 14
-0.30192894 -0.22578523 0.64430809 0.011191917 51 11
-0.30408585 -0.22988951 0.65579534 0.010743527 58 13
nan nan nan 0 69 16
nan nan nan 0 90 21
nan nan nan 0 42 9
-0.29975122 -0.23699847 0.67612314 0.0096317604 50 11
nan nan nan 0 95 22
nan nan nan 0 73 17
nan nan nan 0 52 12
nan nan nan 0 111 25
-0.19182137 -0.16088042 0.4604575 0.0055933972 139 32
-0.18341042 -0.15571879 0.44614375 0.0025530814 357 83
-0.18233785 -0.1567366 0.44957358 0.001898227 475 110
-0.18142027 -0.15791498 0.45351976 0.0017410223 511 119
-0.17827345 -0.15715827 0.45195475 0.001582489 597 139
-0.17971832 -0.1604822 0.46217683 0.0017249166 535 124
-0.17777909 -0.16083181 0.46388626 0.0019018608 489 114
-0.17549114 -0.16087103 0.46473634 0.0016836118 541 126
-0.17393579 -0.16159186 0.46758911 0.0017524454 530 123
-0.16822545 -0.15841965 0.45919055 0.0015904974 595 138
-0.16587634 -0.15836872 0.45984477 0.001569914 606 141
-0.16359578 -0.15838273 0.46070516 0.001600175 587 137
-0.16142878 -0.15850864 0.46190566 0.0017263482 575 134
-0.15936521 -0.15874121 0.4634293 0.001711782 533 124
-0.16160583 -0.16333075 0.47770554 0.0019361384 477 111
-0.16261992 -0.16679862 0.48874849 0.0019061319 453 105
-0.16430615 -0.17107099 0.50219166 0.0019679936 426 99
-0.16167229 -0.17090739 0.50263298 0.001955936 431 100
-0.15756246 -0.16915418 0.49838451 0.0017370908 517 120
-0.1534768 -0.16737185 0.4940246 0.0016416603 570 133
-0.15110689 -0.16743347 0.49508944 0.0016555029 556 129
-0.14873762 -0.1674978 0.49615237 0.0016565342 556 129
-0.14719716 -0.16851306 0.50002521 0.0018407558 517 120
-0.14557664 -0.16946945 0.50371975 0.0018364072 502 117
-0.14277352 -0.16905826 0.50333703 0.0017979003 492 114
-0.14428526 -0.17383122 0.51839411 0.0020664837 384 89
-0.14410831 -0.17670313 0.52780128 0.0022573611 345 80
-0.14001313 -0.17478757 0.52289486 0.0019907546 422 98
-0.13704386 -0.1742329 0.52202916 0.0018117176 487 113
-0.13577531 -0.17586017 0.52768624 0.0019085357 477 111
-0.1349155 -0.17808926 0.535146 0.0018898118 447 104
-0.13377103 -0.18002219 0.54171306 0.0020398286 422 98
-0.13208069 -0.18128285 0.54624951 0.0020363352 408 95
-0.1298503 -0.18183838 0.54864746 0.0019512421 439 102
-0.12750889 -0.18225825 0.55061859 0.0021539826 389 90
-0.12712249 -0.18554939 0.56125695 0.0025025383 323 75
-0.12480267 -0.1860998 0.5635975 0.0023639053 321 74
-0.11880797 -0.18107367 0.54901266 0.0019434053 430 100
-0.11686604 -0.18213676 0.55285549 0.0021117392 405 94
-0.114738 -0.18295224 0.5559324 0.002052956 396 92
-0.11290905 -0.18429448 0.56059653 0.0021894902 392 91
-0.1102736 -0.1843535 0.56134129 0.0020657454 398 92
-0.10681874 -0.18301152 0.55779636 0.0019025268 441 102
-0.10395908 -0.18264696 0.55720592 0.0018796142 439 102
-0.10183 -0.1835804 0.56055784 0.0019315514 449 104
-0.099735856 -0.18462861 0.56424665 0.0020621405 443 103
-0.097164698 -0.18482725 0.56532383 0.0020766272 436 101
-0.094722368 -0.18528913 0.56718946 0.0020578036 437 102
-0.092304833 -0.18582791 0.5692749 0.0019584035 427 99
-0.089652441 -0.18591201 0.56995136 0.0021203801 408 95
-0.087031178 -0.18606792 0.57083136 0.0019320494 423 98
-0.084453888 -0.18633077 0.57202351 0.0019582054 425 99
-0.081785716 -0.18640387 0.57261723 0.0020504107 436 101
-0.079727672 -0.18792005 0.57763094 0.0019461601 428 99
-0.076982036 -0.18786551 0.57780349 0.0019439772 422 98
-0.074392751 -0.1882025 0.57916522 0.0019678492 411 95
-0.071681835 -0.18824568 0.57960844 0.0019178152 428 99
-0.069025658 -0.18844177 0.58050793 0.0019406012 443 103
-0.066326253 -0.18853112 0.58106458 0.0019337486 445 103
-0.063528925 -0.18833782 0.58073598 0.001892076 441 102
-0.060772367 -0.18825349 0.58072907 0.0019328162 430 100
-0.058495078 -0.18971565 0.58548111 0.0019333311 428 99
-0.055778921 -0.18982841 0.5860576 0.0019848496 424 99
-0.053183891 -0.19038652 0.58799672 0.0021333063 411 95
-0.050615922 -0.19110785 0.59042871 0.0021276555 389 90
-0.048014171 -0.19177777 0.59269083 0.0021997681 380 88
-0.045609199 -0.19336425 0.5977754 0.0022355723 352 82
-0.043280881 -0.1955047 0.60456383 0.0024981617 338 78
-0.040455937 -0.19554459 0.60484654 0.0024542476 338 78
-0.037114784 -0.19290744 0.59683496 0.0023403685 363 84
-0.034281433 -0.19269498 0.59631157 0.0021732289 369 86
-0.031570848 -0.19319607 0.59798539 0.0021036032 391 91
-0.028632704 -0.19226667 0.59522015 0.0020565905 403 94
-0.025810577 -0.19199994 0.59449476 0.0020108391 408 95
-0.023046911 -0.19215612 0.59506834 0.0019347558 432 100
-0.020258285 -0.19211856 0.5950312 0.0020986334 429 100
-0.017482525 -0.1922105 0.59538484 0.0019362976 435 101
-0.014665343 -0.19179551 0.59415776 0.0018593147 460 107
-0.011900079 -0.19202425 0.59491456 0.0019183321 438 102
-0.0091354782 -0.19240659 0.59613723 0.0019724539 415 96
-0.0063951965 -0.19386207 0.60067493 0.0021184513 382 89
-0.0035816217 -0.19363566 0.59999132 0.0021168555 382 89
-0.00077195634 -0.19274694 0.59724551 0.0021789814 372 86
0.0020097373 -0.19164711 0.59383529 0.0022245045 362 84
0.0046846559 -0.18754876 0.58112419 0.0020717958 393 91
0.0071946615 -0.18228172 0.56478292 0.0020265358 407 95
0.009715016 -0.18003541 0.55779254 0.002200667 399 93
0.0122699 -0.17924464 0.55530286 0.0020713934 387 90
0.014659906 -0.17674236 0.54750222 0.0020048418 408 95
0.017190648 -0.17642882 0.54647297 0.002020254 411 95
0.019758591 -0.17652883 0.54671514 0.0020988416 419 97
0.022426255 -0.1773947 0.54931933 0.0020620704 402 93
0.025128318 -0.17832659 0.55211723 0.0021259373 382 89
0.028032601 -0.18038595 0.55839425 0.0022088038 359 83
0.031134959 -0.18325986 0.56717962 0.0022765831 349 81
0.033912994 -0.18392311 0.56911039 0.0023125806 356 83
0.036868684 -0.18538295 0.5734939 0.0023856829 350 81
0.040297356 -0.18886124 0.5841065 0.0022759011 348 81
0.043129135 -0.18927754 0.58523476 0.0022448117 351 81
0.04686543 -0.19337629 0.59773302 0.0024025592 315 73
0.049864285 -0.1941414 0.59991008 0.0023936275 320 74
0.052500397 -0.19348787 0.59769088 0.002265064 355 82
0.055392288 -0.19379549 0.59842831 0.0021676701 369 86
0.058360495 -0.19432753 0.59984481 0.0022098566 368 85
0.061190378 -0.19437121 0.59973967 0.0021296241 379 88
0.064255044 -0.19512402 0.60180789 0.0021059243 382 89
0.066736847 -0.19411796 0.59843761 0.0020667445 391 91
0.068965651 -0.19248717 0.59313071 0.0021613755 406 94
0.071835719 -0.19270343 0.59350282 0.0021424035 397 92
0.074813671 -0.19318202 0.59466696 0.0020864357 410 95
0.077735625 -0.19348675 0.59527922 0.0020034895 414 96
0.080525301 -0.19345246 0.5948323 0.002093537 385 89
0.083009139 -0.19271043 0.59219444 0.0022567869 373 87
0.085685462 -0.19244912 0.59101927 0.0021124184 376 87
0.087470941 -0.1902664 0.58393151 0.0021729765 399 93
0.089125365 -0.18794081 0.57639772 0.0019093825 456 106
0.091891386 -0.18802765 0.57625002 0.0018189484 493 115
0.093994707 -0.18679252 0.57203603 0.001732127 511 119
0.096590906 -0.18657862 0.57093501 0.0018307354 522 121
0.099090368 -0.18619458 0.56929654 0.0016782924 541 126
0.10159945 -0.1858485 0.56775743 0.0016576505 546 127
0.10433572 -0.18592516 0.56749159 0.0016664038 553 129
0.10709383 -0.1860359 0.56730992 0.0016470661 543 126
0.10991453 -0.18624726 0.56741458 0.0016998047 530 123
0.11280055 -0.1865565 0.56779587 0.00171813 515 120
0.11557169 -0.18666568 0.56754667 0.0017317013 521 121
0.11837965 -0.18682805 0.56743747 0.0017630345 491 114
0.12122776 -0.18704508 0.56747216 0.0018834519 492 114
0.12414382 -0.18735515 0.56776607 0.0018017874 479 111
0.1269495 -0.18748894 0.56750268 0.001910876 459 107
0.12988088 -0.18779887 0.56774914 0.0019359813 425 99
0.13285932 -0.18816274 0.56813407 0.0020606469 412 96
0.13557461 -0.18814677 0.5673489 0.0021359413 408 95
0.13836902 -0.1882391 0.56686801 0.001980297 417 97
0.14118791 -0.18836044 0.56645167 0.0019795329 426 99
0.14380677 -0.18821545 0.56521261 0.0019275637 442 103
0.14618258 -0.18776365 0.5630331 0.0019422887 452 105
0.14781071 -0.18638556 0.55806315 0.0019184146 457 106
0.15104611 -0.18704727 0.5591833 0.0018362136 469 109
0.15270595 -0.18576899 0.55448663 0.0018623128 461 107
0.15347731 -0.18347286 0.54674959 0.0018572311 487 113
0.15577844 -0.18305251 0.54459769 0.0017556247 498 116
0.15820844 -0.18279515 0.54291683 0.0018295553 509 118
0.16102357 -0.18298395 0.5425458 0.0017524608 494 115
0.16263942 -0.18182585 0.53817189 0.0018215254 496 115
0.1653627 -0.18192302 0.53750628 0.0017695667 496 115
0.16836841 -0.18232298 0.53772199 0.0017743593 495 115
0.17077595 -0.1820728 0.53601092 0.0017726833 497 116
0.17347701 -0.18213843 0.53522426 0.0017367629 508 118
0.17575745 -0.18176711 0.53315163 0.0018747613 487 113
0.17884398 -0.1822281 0.53351933 0.0018176729 468 109
0.18132253 -0.18206519 0.53206122 0.0018536034 454 106
0.18435115 -0.18245137 0.53221267 0.0020555812 438 102
0.18705365 -0.18250839 0.53141135 0.0019836645 418 97
0.18921526 -0.18204351 0.52910626 0.0019999626 422 98
0.1889482 -0.17928687 0.52017468 0.0019339246 437 102
0.19285071 -0.18050772 0.5228132 0.001978762 422 98
0.19403693 -0.17918751 0.51811862 0.0019812221 423 98
0.19486722 -0.17757778 0.51263189 0.0019001293 448 104
0.19203348 -0.17271461 0.49781752 0.0017478121 514 120
0.19191642 -0.1703885 0.49038607 0.0016206545 573 133
0.19423474 -0.17025624 0.48932141 0.0016892356 592 138
0.19570699 -0.16939497 0.48621154 0.0015472631 615 143
0.19753554 -0.16885963 0.48409232 0.0015511396 607 141
0.1993642 -0.16833748 0.48206791 0.0016832051 584 136
0.20211948 -0.16860089 0.48235071 0.0016551958 544 127
0.20469056 -0.16870619 0.4822399 0.0017531803 495 115
0.20825718 -0.16961984 0.48450002 0.0019236332 438 102
0.21187243 -0.17055134 0.48687258 0.002087214 381 88
0.21392772 -0.17022011 0.48570645 0.0022921558 364 85
0.21513271 -0.16922756 0.48272321 0.0022538158 344 80
0.21756297 -0.16921034 0.48259202 0.002257373 355 82
0.21961361 -0.16890158 0.48169887 0.0025076652 347 81
0.22080189 -0.16794367 0.47902402 0.002456547 331 77
0.21926968 -0.16496 0.47063765 0.00241643 324 75
0.22045763 -0.164065 0.46827474 0.0023770521 324 75
0.22006948 -0.16202872 0.46271652 0.00240266 316 73
0.218862 -0.15943852 0.45563295 0.0023731946 329 76
0.22013713 -0.15869211 0.4538742 0.0025745819 325 75
0.22205749 -0.15842149 0.4535346 0.0025512129 318 74
0.22231025 -0.15697885 0.44989404 0.0027532012 305 71
0.2227405 -0.15568949 0.44674113 0.003338787 231 53
nan nan nan 0 105 24
nan nan nan 0 94 21
nan nan nan 0 104 24
0.33077657 -0.22220081 0.64145368 0.007002349 99 23
0.33535603 -0.22310518 0.64521432 0.012348183 50 11
0.33274934 -0.21925715 0.63528204 0.025273679 25 5
-0.34621277 -0.19906121 0.60283816 0.017734773 26 6
nan nan nan 0 16 3
nan nan nan 0 38 8
nan nan nan 0 52 12
nan nan nan 0 41 9
nan nan nan 0 16 3
nan nan nan 0 9 2
-0.3678028 -0.22477789 0.66950959 0.053201914 13 3
-0.36771572 -0.22676255 0.67380255 0.023184841 18 4
-0.35782677 -0.22268353 0.66014361 0.011257217 47 10
-0.35213989 -0.22116843 0.6541785 0.0084471684 65 15
-0.34741959 -0.22023776 0.65001649 0.012158367 55 12
nan nan nan 0 50 11
-0.34319866 -0.22169521 0.65166599 0.014821975 38 8
-0.3431012 -0.22375768 0.65648919 0.012933504 45 10
nan nan nan 0 45 10
nan nan nan 0 50 11
nan nan nan 0 57 13
nan nan nan 0 26 6
-0.348836 -0.23895547 0.69562691 0.035213925 21 4
-0.34350234 -0.23769616 0.6911273 0.019766817 32 7
-0.32245761 -0.22542748 0.65474927 0.0093586566 60 14
-0.31574249 -0.22302569 0.64716178 0.0092577972 67 15
nan nan nan 0 51 11
nan nan nan 0 58 13
nan nan nan 0 64 14
nan nan nan 0 57 13
nan nan nan 0 57 13
nan nan nan 0 63 14
nan nan nan 0 69 16
nan nan nan 0 33 7
nan nan nan 0 34 7
-0.29036137 -0.22886983 0.66304946 0.0072841621 83 19
-0.28740105 -0.22919293 0.66440481 0.0058314078 113 26
nan nan nan 0 108 25
-0.19275807 -0.15741003 0.45707363 0.0036452368 182 42
-0.18693163 -0.1545074 0.4491033 0.0034419803 218 50
-0.18287233 -0.15301192 0.44526282 0.0017685498 492 114
-0.18020047 -0.15265456 0.44477722 0.0015400114 636 148
-0.18065999 -0.15497434 0.45214552 0.0015878327 598 139
-0.17854187 -0.15511401 0.45320562 0.0016081079 567 132
-0.17599845 -0.15488298 0.45322105 0.0015605836 607 141
-0.17759928 -0.1583408 0.46408066 0.0017227993 531 123
-0.17458694 -0.15772285 0.46303931 0.0016287143 571 133
-0.17191419 -0.15739925 0.46288419 0.0015863456 597 139
-0.16767652 -0.15561444 0.458444 0.0014179995 710 165
-0.16516371 -0.15540317 0.45864758 0.0013856639 741 173
-0.16263355 -0.15516943 0.45879716 0.0014433326 692 161
-0.16102073 -0.1558167 0.46156505 0.0015414286 626 146
-0.15875843 -0.15584514 0.462511 0.0016442928 617 144
-0.16068807 -0.16004968 0.47587863 0.0017493271 516 120
-0.16376418 -0.16553809 0.49311885 0.0019135475 438 102
-0.16262895 -0.16687094 0.49801651 0.0018952858 451 105
-0.16135013 -0.16809507 0.50259972 0.0019216962 434 101
-0.15536821 -0.16438131 0.49239838 0.0017126912 522 121
-0.15282686 -0.16424784 0.49289188 0.0016583283 540 126
-0.15042144 -0.1642586 0.49380675 0.0017898806 532 124
-0.14799716 -0.16424869 0.49464726 0.0017462793 552 128
-0.14558277 -0.16424964 0.49550655 0.0017087054 525 122
-0.14355379 -0.16469283 0.49768728 0.0018312926 497 116
-0.14246432 -0.16624755 0.50322092 0.0018523608 461 107
-0.14527187 -0.17248355 0.52294546 0.0021920847 364 85
-0.14284268 -0.17261299 0.52416855 0.0021804809 379 88
-0.13895623 -0.17095433 0.51993519 0.0019165393 472 110
-0.13764739 -0.17246415 0.52531767 0.0018568782 462 107
-0.13567601 -0.1731849 0.52828681 0.0019225136 469 109
-0.13341233 -0.17355302 0.53016424 0.0019543951 463 108
-0.13334748 -0.17685165 0.54098856 0.0020014637 414 96
-0.1292254 -0.17479362 0.535411 0.0018201405 478 111
-0.12668413 -0.1748337 0.53623056 0.0017978904 491 114
-0.12709925 -0.17903996 0.54982364 0.0022082981 393 91
-0.12728301 -0.1830914 0.56295115 0.0025275683 308 71
-0.12454373 -0.18302236 0.56340265 0.0022443687 350 81
-0.11801635 -0.17726059 0.54628772 0.0019627113 447 104
-0.11631474 -0.17865056 0.55117726 0.0019852188 416 97
-0.1140667 -0.17924607 0.55360174 0.0021077883 395 92
-0.11183988 -0.17990391 0.55620247 0.0020770987 389 90
-0.11026786 -0.18167245 0.56222445 0.0020932762 384 89
-0.10735601 -0.18126653 0.56150126 0.0020898532 410 95
-0.10377136 -0.17967506 0.55708033 0.0018829789 449 104
-0.10121412 -0.17982578 0.55803806 0.0018755422 456 106
-0.09926495 -0.18109395 0.5624485 0.0018909939 446 104
-0.096718915 -0.18131313 0.56358641 0.0019838349 452 105
-0.094334148 -0.1818556 0.56571317 0.0018686401 457 106
-0.092026778 -0.18258329 0.56840146 0.0019613998 430 100
-0.089657493 -0.18322818 0.57081765 0.0019807084 432 100
-0.087146021 -0.18361345 0.57241035 0.0020702195 422 98
-0.084574789 -0.18389343 0.5736596 0.0019489158 435 101
-0.082304783 -0.18486847 0.5770632 0.0020383277 401 93
-0.080272168 -0.1864616 0.58238518 0.0020762961 395 92
-0.077507064 -0.18640573 0.58254397 0.0022201533 386 90
-0.074755274 -0.18637897 0.58277822 0.0021440738 375 87
-0.072070397 -0.18652333 0.58353281 0.0021372987 375 87
-0.069540605 -0.18709639 0.58561504 0.0020641424 393 91
-0.066589504 -0.18653645 0.58413678 0.002084411 387 90
-0.063794233 -0.18638365 0.58391857 0.0022135563 390 91
-0.061330542 -0.18722938 0.58681607 0.0021545263 403 94
-0.058757499 -0.18780513 0.58885586 0.0021131753 391 91
-0.056006067 -0.18783931 0.58918542 0.0020741324 388 90
-0.053335845 -0.18816356 0.59041244 0.0021449686 369 86
-0.050695874 -0.18863589 0.59209245 0.002127144 371 86
-0.047933679 -0.18868177 0.59242243 0.0022613292 373 87
-0.04524013 -0.18902008 0.59365898 0.0023216999 354 82
-0.04243597 -0.18891028 0.59347659 0.002157989 373 87
-0.039528351 -0.18829231 0.59168583 0.0021456527 374 87
-0.036765799 -0.1883243 0.59192574 0.0021291156 387 90
-0.034104757 -0.18892378 0.59393889 0.0020747867 393 91
-0.031232573 -0.18835631 0.59227246 0.0021372756 404 94
-0.028423335 -0.18809487 0.59155732 0.0019656783 428 99
-0.025730079 -0.18862738 0.59332877 0.0019440301 425 99
-0.022842867 -0.18769491 0.59048152 0.0018681269 461 107
-0.020164762 -0.18846038 0.5929659 0.0019532479 447 104
-0.017406328 -0.18859942 0.59346956 0.0019042807 444 103
-0.014645428 -0.18875942 0.59402931 0.0019520137 426 99
-0.011875874 -0.1888566 0.59438157 0.0020050856 427 99
-0.0091141025 -0.18917465 0.59541911 0.0020351785 394 92
-0.0063525471 -0.18977855 0.59734696 0.002058709 394 92
-0.0035447387 -0.18886442 0.59448683 0.0020810361 387 90
-0.00076028542 -0.18708189 0.5888834 0.0021798087 382 89
0.0019734255 -0.18545735 0.58376759 0.0021531377 386 90
0.0046707178 -0.18428096 0.58005321 0.002117774 404 94
0.0071590887 -0.17875195 0.5626294 0.0020212424 409 95
0.0096985055 -0.17712487 0.55747885 0.002178988 399 93
0.012178075 -0.17532511 0.55177617 0.002058581 403 94
0.014605737 -0.17353748 0.54610348 0.0019818863 421 98
0.017116591 -0.17312303 0.54474372 0.0021465961 410 95
0.019623261 -0.17277907 0.54359668 0.0021235517 417 97
0.022127043 -0.17249146 0.54261792 0.0019758432 420 98
0.024984457 -0.17473622 0.54959506 0.0022531811 388 90
0.0277742 -0.17613317 0.55389428 0.0022963674 359 83
0.030717039 -0.17817989 0.56022495 0.0022150755 355 82
0.033916965 -0.18127896 0.5698511 0.0023086427 335 78
0.036584374 -0.1812876 0.56974989 0.0023158747 346 80
0.040385131 -0.18652976 0.58608186 0.0024403112 341 79
0.043248195 -0.18704955 0.58756047 0.002316688 330 77
0.046512496 -0.1891388 0.59395528 0.0023480975 329 76
0.049535122 -0.19006495 0.59668308 0.0023639705 329 76
0.052384458 -0.19026284 0.5971114 0.0022761628 342 79
0.055162396 -0.19019441 0.59669143 0.0021799803 373 87
0.057982463 -0.19027092 0.59671324 0.0023072294 389 90
0.060574491 -0.18962644 0.59446198 0.0020822913 402 93
0.063365243 -0.18963343 0.59424025 0.0022211468 403 94
0.065621488 -0.18810764 0.58920383 0.0019715824 422 98
0.068460196 -0.1883074 0.58956045 0.0019702259 426 99
0.0714323 -0.18884432 0.59095722 0.0019690909 427 99
0.074324258 -0.18913707 0.59157413 0.0020358453 414 96
0.077430971 -0.18993549 0.59375596 0.0020520731 398 92
0.080339611 -0.19020937 0.59428084 0.0021052265 386 90
0.082906425 -0.18968278 0.59228933 0.0021047285 381 88
0.084508196 -0.18705435 0.58372456 0.0020508808 398 92
0.086728252 -0.18591705 0.57980418 0.0019020853 460 107
0.088769428 -0.18447751 0.57492983 0.0018681646 505 117
0.091034092 -0.18357407 0.57171422 0.001710235 529 123
0.093563393 -0.18324088 0.57026017 0.0018026485 533 124
0.096299283 -0.18331966 0.57007122 0.0017097006 522 121
0.098995909 -0.1833214 0.56962448 0.0017134543 537 125
0.10169584 -0.18332903 0.56917757 0.0017719528 516 120
0.10434411 -0.18324554 0.56842917 0.0017879179 505 117
0.10718706 -0.18349954 0.568708 0.0017626086 496 115
0.11023429 -0.18408218 0.56998348 0.0019022056 469 109
0.11307526 -0.18430075 0.57010925 0.0019473535 449 104
0.11577495 -0.18428415 0.56948668 0.0020692679 437 102
0.11856052 -0.18440191 0.56925803 0.0019380961 420 98
0.12128931 -0.18442808 0.56872511 0.0021105227 415 96
0.12410656 -0.18458465 0.5685724 0.002098985 422 98
0.12696631 -0.18479639 0.56856662 0.0019744625 424 99
0.12949647 -0.1845296 0.56706679 0.00196696 429 100
0.13207468 -0.18434082 0.56578636 0.0020332919 425 99
0.13451293 -0.1839682 0.56392181 0.001947216 445 103
0.13687186 -0.18350394 0.56175721 0.0018761096 454 106
0.13873924 -0.18241136 0.55765349 0.0018904244 465 108
0.141415 -0.18240289 0.55684662 0.0018690302 471 109
0.14443354 -0.18282863 0.55734169 0.0018846517 450 105
0.147303 -0.18305358 0.55719995 0.001858127 456 106
0.14979354 -0.18280801 0.55560488 0.0019929581 456 106
0.15131892 -0.18141399 0.55050623 0.0018312068 467 109
0.15267199 -0.17986524 0.54493225 0.0018543516 483 112
0.15536608 -0.17992224 0.54421121 0.0018044671 481 112
0.1579798 -0.17988579 0.54318905 0.0018332606 490 114
0.16013436 -0.17933637 0.54060382 0.0018423931 485 113
0.16222425 -0.17873347 0.53784752 0.0017979388 484 113
0.16487205 -0.17875467 0.53695792 0.001830711 487 113
0.16775587 -0.17902711 0.53680885 0.0017742317 489 114
0.17008373 -0.17870696 0.53487241 0.0017716805 497 116
0.17179848 -0.17776217 0.53106493 0.001754051 500 116
0.17507504 -0.17843747 0.53209311 0.0018981295 493 115
0.17721887 -0.17795548 0.52966571 0.0017949953 490 114
0.18094648 -0.17905466 0.53194094 0.001829464 472 110
0.18294434 -0.17843521 0.52911079 0.0020024632 460 107
0.1856337 -0.17849821 0.52831393 0.0018711037 461 107
0.18512534 -0.1755275 0.51856434 0.001863796 462 107
0.18690325 -0.17477643 0.51540685 0.0018219322 475 110
0.18884236 -0.17419443 0.51277345 0.0018021092 480 112
0.19038156 -0.17326406 0.50914514 0.0017489649 509 118
0.18775864 -0.16862039 0.49466017 0.0016288852 565 131
0.18912829 -0.16763663 0.4909704 0.0015763452 591 138
0.19139941 -0.16746692 0.48970559 0.001602046 622 145
0.19286288 -0.16660389 0.48645738 0.0015518975 637 148
0.19569053 -0.16692612 0.48671597 0.0016059203 632 147
0.19830678 -0.1670623 0.48647809 0.0016511942 596 139
0.20072632 -0.16703145 0.48580542 0.0017635204 544 127
0.20305412 -0.16692591 0.48497137 0.0018168003 488 113
0.20687996 -0.16803971 0.48773599 0.0019017014 437 102
0.21086413 -0.16925429 0.4908492 0.0020371156 393 91
0.21140748 -0.16771093 0.48602974 0.0022488837 375 87
0.21305117 -0.16706599 0.48388517 0.002225783 377 88
0.21417028 -0.16602908 0.480676 0.0022135554 384 89
0.21535206 -0.16506359 0.47774488 0.0022451598 381 88
0.21743831 -0.16480514 0.47693086 0.0021280379 380 88
0.22037488 -0.1651898 0.47804812 0.0023425973 342 79
0.2217875 -0.16443619 0.47594136 0.0023873574 323 75
0.21995322 -0.16131748 0.46705598 0.0023540547 334 77
0.21970032 -0.15941279 0.461748 0.0023873248 320 74
0.21803868 -0.15653692 0.45368606 0.0023552026 340 79
0.21951249 -0.15594865 0.45231196 0.0022127277 357 83
0.22042258 -0.15497622 0.44988266 0.0022338815 360 84
0.22080749 -0.15365821 0.4465048 0.0024041384 343 80
0.22245662 -0.15323775 0.44578859 0.0027585628 292 68
0.2248413 -0.15332732 0.44661227 0.0044207848 170 39
nan nan nan 0 104 24
nan nan nan 0 110 25
nan nan nan 0 109 25
0.33458182 -0.21936445 0.64295715 0.0070256088 85 19
0.33870259 -0.21994565 0.64584148 0.013127336 45 10
-0.34951603 -0.19800541 0.60794795 0.022979541 27 6
nan nan nan 0 24 5
nan nan nan 0 39 9
nan nan nan 0 47 10
nan nan nan 0 29 6
nan nan nan 0 20 4
nan nan nan 0 11 2
nan nan nan 0 15 3
-0.36797988 -0.22358856 0.67331767 0.047160588 14 3
-0.36201757 -0.22197869 0.66693848 0.017771961 34 7
-0.35234094 -0.21804059 0.65365952 0.0092800912 58 13
-0.35231096 -0.22005437 0.65829748 0.011967537 44 10
nan nan nan 0 44 10
-0.34817544 -0.22160277 0.66030669 0.012008494 48 11
-0.34346256 -0.22069955 0.65641189 0.013519442 48 11
nan nan nan 0 43 10
nan nan nan 0 40 9
nan nan nan 0 52 12
nan nan nan 0 55 12
nan nan nan 0 59 13
-0.34791556 -0.23720986 0.69947755 0.024481075 29 6
-0.34313902 -0.23635821 0.6962747 0.011906845 49 11
nan nan nan 0 79 18
nan nan nan 0 63 14
nan nan nan 0 56 13
nan nan nan 0 44 10
nan nan nan 0 68 15
nan nan nan 0 45 10
-0.30718157 -0.22799696 0.66965979 0.010057104 57 13
nan nan nan 0 72 16
nan nan nan 0 33 7
-0.30735603 -0.23596796 0.69373101 0.026593816 19 4
-0.29183048 -0.22664532 0.6667273 0.011555666 45 10
-0.28822473 -0.22646986 0.66670799 0.0052435934 118 27
nan nan nan 0 133 31
-0.19121306 -0.15385219 0.45378309 0.0046153907 149 34
-0.1863485 -0.15176049 0.44811895 0.0028299736 268 62
-0.18312053 -0.15096653 0.4463284 0.0018327229 473 110
-0.18299869 -0.15274543 0.45219633 0.0018142285 531 123
-0.18073305 -0.15275724 0.45288441 0.0015694937 588 137
-0.17855953 -0.15284817 0.45384797 0.0016005379 587 137
-0.17770511 -0.15408529 0.45825756 0.0016486676 561 131
-0.17662224 -0.15515412 0.4622103 0.0016800798 550 128
-0.17444305 -0.15527551 0.46337473 0.0016334547 555 129
-0.17109077 -0.15434191 0.46141064 0.0015161862 629 146
-0.16726652 -0.15295126 0.45808741 0.001377093 728 170
-0.16445692 -0.15246274 0.45747143 0.0013371046 780 182
-0.16211808 -0.1524031 0.4581511 0.0014735662 730 170
-0.16012621 -0.15267257 0.45982957 0.0014023484 714 166
-0.1582202 -0.15303288 0.46179011 0.0014841129 666 155
-0.15645018 -0.1535372 0.46419194 0.0016477817 568 132
-0.16279052 -0.16213416 0.49111143 0.0019576428 449 104
-0.16267385 -0.16446252 0.49910167 0.002003476 412 96
-0.16033588 -0.16458213 0.50039637 0.0021081392 423 98
-0.15686418 -0.16352358 0.49809492 0.001926479 463 108
-0.15268736 -0.1616849 0.49339029 0.0017930246 487 113
-0.14997219 -0.1613598 0.49328011 0.0018423327 520 121
-0.14755769 -0.1613529 0.49412692 0.0016890968 537 125
-0.14526336 -0.16147931 0.49536741 0.00173127 508 118
-0.14302807 -0.16167676 0.49681136 0.0017646763 511 119
-0.14259249 -0.16395023 0.50462973 0.001899089 440 102
-0.14109971 -0.16506636 0.50888455 0.0020641368 405 94
-0.13894512 -0.16543414 0.51082069 0.0020093 452 105
-0.1380337 -0.16732217 0.51744199 0.0018174235 489 114
-0.13816744 -0.17057011 0.52827221 0.001868327 463 108
-0.13613369 -0.17121387 0.53103411 0.0018737502 454 106
-0.13474686 -0.17271148 0.53643239 0.0019525344 421 98
-0.13064155 -0.17071514 0.5309552 0.001839946 474 110
-0.12759884 -0.17005552 0.529603 0.0017803728 497 116
-0.12638596 -0.17185734 0.53589964 0.001857031 460 107
-0.12550482 -0.17419422 0.54385972 0.0021051469 391 91
nan nan nan 0 305 71
-0.12052925 -0.17451836 0.54615587 0.0021010572 391 91
-0.11737227 -0.17370082 0.54420501 0.0019296111 441 102
-0.11465981 -0.17351903 0.54422182 0.0018944582 450 105
-0.11249524 -0.17417718 0.54685402 0.0019047572 452 105
-0.11118046 -0.17621331 0.55380124 0.001942719 439 102
-0.10964598 -0.17799148 0.55992949 0.0020469015 405 94
-0.10745527 -0.17876619 0.5628888 0.0021782855 387 90
-0.10418802 -0.17774379 0.56016952 0.0020236888 402 93
-0.10118422 -0.17712913 0.55871183 0.0019534207 449 104
-0.098674148 -0.177369 0.55992973 0.0018952925 449 104
-0.096317135 -0.1779048 0.56206584 0.0019385592 429 100
-0.094082996 -0.1787044 0.5650208 0.0019445409 433 101
-0.091862373 -0.17957705 0.56819326 0.0020329007 438 102
-0.087884121 -0.17696299 0.56031263 0.0018963183 487 113
-0.085602582 -0.1777093 0.56305128 0.0017998627 488 113
-0.082983352 -0.1777799 0.56363457 0.0018029176 493 115
-0.080970593 -0.1791973 0.56847483 0.0018299608 477 111
-0.078392081 -0.17941673 0.56950253 0.0018317086 485 113
-0.075699113 -0.17938043 0.56970376 0.0018370245 477 111
-0.073910378 -0.1815628 0.57694012 0.0020060798 456 106
-0.071377307 -0.18201315 0.57866275 0.002065992 439 102
-0.069408901 -0.18399602 0.58524728 0.0021350645 423 98
-0.066711076 -0.184129 0.5859369 0.0020693587 399 93
-0.06451644 -0.18572189 0.59126115 0.0022178337 362 84
-0.061458185 -0.18486015 0.58875835 0.0022547438 364 85
-0.058705971 -0.1848812 0.58905321 0.0021747809 366 85
-0.056262847 -0.18592574 0.59259748 0.0022417179 349 81
-0.053594958 -0.18629734 0.59398621 0.0022444117 366 85
-0.050697736 -0.18586886 0.5928117 0.0022013388 360 84
-0.047951095 -0.18597478 0.59332937 0.002327932 361 84
-0.045113891 -0.18572088 0.59268737 0.002215137 355 82
-0.042275544 -0.18542872 0.59191149 0.0023118306 364 85
-0.039463427 -0.18521878 0.59138656 0.002237583 364 85
-0.036642767 -0.18493409 0.59061176 0.0020880369 395 92
-0.033899367 -0.18502468 0.5910247 0.0019949838 411 95
-0.031130658 -0.18498094 0.59099823 0.0020106793 411 95
-0.028317325 -0.18463777 0.59000456 0.0020009635 437 102
-0.025569176 -0.18469143 0.59026867 0.0020115753 457 106
-0.022791877 -0.18452206 0.58981025 0.0019809587 455 106
-0.020087278 -0.18497559 0.59133297 0.0019198431 429 100
-0.017367646 -0.18541314 0.59279543 0.0019932583 432 100
-0.014609676 -0.18552972 0.5932222 0.0019720641 425 99
-0.011838523 -0.18549426 0.59315348 0.0020920578 406 94
-0.0090643307 -0.18537498 0.59280717 0.0020199844 406 94
-0.0063143042 -0.18586223 0.59439117 0.0020905363 387 90
-0.0035027058 -0.18388061 0.58807033 0.0020207453 411 95
-0.00075587648 -0.18326195 0.58609897 0.0020624993 408 95
0.0019513762 -0.18068859 0.57786691 0.0019938564 429 100
0.0046312753 -0.18003784 0.57577473 0.0020120274 415 96
0.0071928566 -0.17695415 0.56589317 0.0021057941 387 90
0.0096799694 -0.17418674 0.55701488 0.0020146442 407 95
0.012104388 -0.17170173 0.54903179 0.0020194103 408 95
0.014556712 -0.17041171 0.54486203 0.0020650572 414 96
0.017053271 -0.16994627 0.54332036 0.0020001889 413 96
0.019557014 -0.16966367 0.5423547 0.0021190632 403 94
0.022055542 -0.16940579 0.54145932 0.0020296036 398 92
0.024561074 -0.16924924 0.54087907 0.0020202151 413 96
0.027305275 -0.17061315 0.54514807 0.0020774419 390 91
0.030286312 -0.17309801 0.55298704 0.0021340542 383 89
0.033471979 -0.17626992 0.56300795 0.0022396941 354 82
0.036731455 -0.17933992 0.57268906 0.0022977267 340 79
0.039981212 -0.18194868 0.58088297 0.0023979382 324 75
0.043501649 -0.18537909 0.59168446 0.0023945349 316 73
0.04646308 -0.18615955 0.59401339 0.0024987299 327 76
0.049338546 -0.18652692 0.59501165 0.0024520061 330 77
0.052165844 -0.18668269 0.59532267 0.0023662483 351 81
0.054971434 -0.18674891 0.5953359 0.0022642128 374 87
0.057537604 -0.18603465 0.59284937 0.0020803884 392 91
0.060295496 -0.18597749 0.59244519 0.0019449358 429 100
0.062571503 -0.1845044 0.58751953 0.0018938812 451 105
0.065355428 -0.18459009 0.58754605 0.0019974348 451 105
0.068282403 -0.18505654 0.58877039 0.0020187523 448 104
0.071248271 -0.18558803 0.59018636 0.001975219 422 98
0.07412719 -0.18586172 0.59076703 0.0021778175 408 95
0.076891713 -0.18583919 0.59039104 0.0020433054 399 93
0.079805925 -0.18616743 0.59111387 0.0020756929 413 96
0.081104584 -0.18283166 0.58019298 0.0020656032 430 100
0.083523519 -0.18215626 0.57770604 0.0019043343 463 108
0.085847571 -0.18132304 0.57470566 0.0017798776 492 114
0.088274397 -0.18075119 0.57252032 0.0017183202 523 122
0.09084706 -0.18050304 0.57134533 0.0017166712 533 124
0.093496777 -0.18041782 0.57066989 0.0018306982 514 120
0.096480951 -0.18096471 0.57197535 0.0017744696 489 114
0.099270903 -0.18112744 0.57204711 0.001846979 491 114
0.10190979 -0.18101324 0.57122582 0.0019195103 463 108
0.10505746 -0.18178529 0.57318085 0.0019060697 435 101
0.1078203 -0.18186936 0.57294506 0.0021060568 415 96
0.11140409 -0.18330005 0.57692778 0.002118523 410 95
0.1133619 -0.18205094 0.57245529 0.0022236821 393 91
0.11580764 -0.18162556 0.57055777 0.002169156 407 95
0.11836531 -0.18139115 0.56924134 0.0021136387 396 92
0.12059946 -0.18068257 0.56641889 0.0019832212 421 98
0.12361158 -0.181145 0.56724691 0.0019521755 431 100
0.12506349 -0.1793502 0.56098968 0.001936776 465 108
0.12793453 -0.17962311 0.56118345 0.0018329491 469 109
0.13142291 -0.18073379 0.56396765 0.0018597647 460 107
0.13307892 -0.17933059 0.55888623 0.0019226187 481 112
0.13566557 -0.17921206 0.55779231 0.0018086847 488 113
0.1375189 -0.17814812 0.55373836 0.0018251839 491 114
0.14051242 -0.17857364 0.55429429 0.0019120571 474 110
0.14401738 -0.17962116 0.55675232 0.0018929032 447 104
0.14579529 -0.17851573 0.55251533 0.0018189182 474 110
0.14881642 -0.17894493 0.55300927 0.0018651475 475 110
0.14967027 -0.17679887 0.54553127 0.0017660434 501 116
0.15231347 -0.17680423 0.54468119 0.0017751881 492 114
0.15499656 -0.17685488 0.54395032 0.0018977096 470 109
0.15761156 -0.17682746 0.54295975 0.0018013078 482 112
0.15968332 -0.17620155 0.54011625 0.0017796548 479 111
0.16170028 -0.17553641 0.53714216 0.0018608114 502 117
0.16463582 -0.17587376 0.53722137 0.0017795939 493 115
0.1672193 -0.17583033 0.53612155 0.0017725609 492 114
0.16849075 -0.17442997 0.5308798 0.00176279 510 119
0.17111535 -0.17445177 0.52996331 0.0017416828 521 121
0.17344707 -0.17417878 0.52814466 0.0017728567 495 115
0.1752283 -0.1733692 0.52469939 0.0018490385 511 119
0.17794785 -0.17349802 0.52409506 0.0017776652 501 116
0.18089209 -0.17383912 0.52412957 0.001802181 484 113
0.18202098 -0.17245062 0.51895893 0.0018161089 491 114
0.1829831 -0.17094508 0.51345956 0.0018553105 507 118
0.18361579 -0.16917743 0.50720233 0.0016899682 550 128
0.18408316 -0.16730744 0.50067353 0.0016690268 561 131
0.18476848 -0.16568299 0.49491763 0.0015637524 594 138
0.18650739 -0.16503365 0.49211001 0.0015246334 636 148
0.18866086 -0.16476333 0.49046484 0.0015087883 648 151
0.19088531 -0.16456117 0.48905706 0.0015317848 633 147
0.19340606 -0.16461632 0.48845148 0.001501556 632 147
0.1962121 -0.16490987 0.48859268 0.0015624709 594 138
0.19919704 -0.16534464 0.48919493 0.0017750908 530 123
0.2021222 -0.16571978 0.4896673 0.0018523101 476 111
0.20575075 -0.16665554 0.49184573 0.0020987808 428 99
0.20871998 -0.16704132 0.49245453 0.0020024332 410 95
0.20869254 -0.16504799 0.48611563 0.0020203951 414 96
0.20943585 -0.16370365 0.48176086 0.0020037708 422 98
0.20962262 -0.16196032 0.47630453 0.0019494336 437 102
