# .PCD v0.7 - Point Cloud Data file format
VERSION 0.7
FIELDS x y z noise intensity gray
SIZE 4 4 4 4 2 1
TYPE F F F F U U
COUNT 1 1 1 1 1 1
WIDTH 885
HEIGHT 1
VIEWPOINT 0 0 0 1 0 0 0
POINTS 885
DATA ascii
0.098963156 -0.0099614933 0.43120053 0.0013673586 788 199
0.10180063 -0.01004509 0.43467766 0.0014085311 781 198
0.10380295 -0.010044642 0.43450281 0.0013626795 769 195
0.10659923 -0.01011958 0.43757325 0.001384535 737 187
0.10945418 -0.010197194 0.44074157 0.0014884137 726 184
0.11403713 -0.01043002 0.45059633 0.0014978627 699 177
0.11805078 -0.010603352 0.4578557 0.0013869558 728 184
0.12060525 -0.010641821 0.45926929 0.001369861 741 188
0.12474664 -0.010816555 0.46653977 0.0013558138 758 192
0.12676941 -0.010804764 0.46574172 0.0012211327 885 224
0.12875989 -0.010790662 0.46482465 0.0012226619 960 243
0.13059385 -0.010764125 0.46335259 0.0011435236 1000 253
0.13296726 -0.010782192 0.46377933 0.0011539119 1004 254
0.1351541 -0.010784793 0.46351823 0.0011373817 1006 255
0.13711387 -0.010769477 0.46246493 0.0011569955 1016 255
0.13866232 -0.010722829 0.46004522 0.001132035 1010 255
0.14070317 -0.010715095 0.45927346 0.0011044125 1058 255
0.14294738 -0.01072285 0.45914081 0.0011433712 1012 255
0.1450429 -0.010719388 0.45850274 0.0012298508 957 242
0.14710277 -0.010713427 0.45773247 0.0012112717 949 240
0.14856438 -0.010664695 0.45511109 0.0011974798 972 246
0.15040605 -0.010644234 0.45367283 0.0011762427 989 250
0.15271589 -0.010657017 0.45362446 0.0011495813 1003 254
0.15462705 -0.010642011 0.45236528 0.0012034604 925 234
0.15749693 -0.010692498 0.45385951 0.0013247721 847 214
0.15758067 -0.010555011 0.44735146 0.0012839672 858 217
0.1568837 -0.010369556 0.43880218 0.0012385179 929 235
0.15845986 -0.010337222 0.43671805 0.0011654112 999 253
0.15878245 -0.010224996 0.43123972 0.0011085521 1064 255
0.16117539 -0.01024725 0.43141043 0.0010535939 1149 255
0.16259588 -0.010207895 0.42895949 0.0010278192 1191 255
0.16396023 -0.010166035 0.42638052 0.00098558492 1303 255
0.1659715 -0.010164819 0.42548075 0.0010149563 1251 255
0.16811439 -0.010171595 0.42488644 0.0010497111 1186 255
0.17014684 -0.010171608 0.42398077 0.0010619173 1137 255
0.17214835 -0.010169791 0.42297158 0.0011037402 1082 255
0.17459933 -0.010194262 0.42302701 0.0012014974 959 243
0.17727618 -0.010231203 0.42356855 0.0014744918 695 176
0.18250097 -0.010412674 0.4300482 0.0018217263 478 121
0.18793622 -0.010601929 0.43678957 0.001915628 443 112
nan nan nan 0 387 98
nan nan nan 0 281 71
nan nan nan 0 179 45
0.29446778 -0.015895018 0.64815247 0.0044327797 150 38
0.2996906 -0.016004339 0.65088332 0.0046032383 139 35
nan nan nan 0 157 39
0.271934 -0.01421864 0.57519513 0.0039794836 170 43
0.27669513 -0.014318012 0.57768923 0.0043473905 153 38
nan nan nan 0 113 28
0.30348095 -0.015385941 0.61758381 0.0067012929 91 23
0.30657995 -0.015387194 0.61610162 0.009230067 74 18
0.30821851 -0.015315849 0.61177719 0.010229642 55 13
0.30694297 -0.015102526 0.60187674 0.010500731 55 13
0.30424559 -0.014824078 0.58950335 0.0093476856 62 15
0.3095383 -0.014936555 0.5927788 0.0087987632 68 17
0.31773347 -0.015185602 0.60154581 0.0089387633 73 18
-0.19311216 -0.0065392256 0.32235986 0.011284035 52 13
-0.16821411 -0.0057446901 0.28289002 0.0070293397 81 20
-0.1673543 -0.0057644802 0.28361949 0.0046996512 121 30
-0.16752054 -0.0058202608 0.28617731 0.0043877568 161 40
-0.1662567 -0.0058268975 0.28637943 0.0041834675 161 40
-0.16523753 -0.005842302 0.28707665 0.0040329997 166 42
-0.16934273 -0.0060407775 0.29683533 0.0056076339 131 33
-0.17141016 -0.0061694756 0.30323589 0.0067006578 91 23
-0.17103167 -0.0062116752 0.30545828 0.0049264766 125 31
-0.17061514 -0.0062532527 0.30772325 0.0044729756 163 41
-0.16884503 -0.0062455283 0.30763352 0.0042899516 158 40
-0.17264947 -0.0064457851 0.31786776 0.0067117903 115 29
nan nan nan 0 62 15
-0.17862311 -0.0067955004 0.33610582 0.0085350014 71 18
nan nan nan 0 89 22
nan nan nan 0 84 21
nan nan nan 0 76 19
-0.30495885 -0.012060014 0.60129476 0.0081801061 80 20
-0.29882178 -0.01193516 0.5964672 0.0078251129 82 20
-0.30649525 -0.012364953 0.6194579 0.010126757 67 17
-0.29876167 -0.012175601 0.61151189 0.0123448 57 14
-0.29788712 -0.012264759 0.6175822 0.011065174 59 14
nan nan nan 0 62 15
-0.31033295 -0.013045399 0.66036409 0.0076160901 82 20
-0.30684939 -0.013035782 0.66163516 0.0073028654 95 24
nan nan nan 0 128 32
nan nan nan 0 195 49
nan nan nan 0 152 38
-0.30072713 -0.013341762 0.68430984 0.0048431195 128 32
-0.29638577 -0.013296443 0.68371791 0.0046101324 131 33
-0.29022068 -0.013167353 0.67876583 0.004125311 157 39
nan nan nan 0 197 49
nan nan nan 0 314 79
nan nan nan 0 312 79
-0.17502058 -0.0083175991 0.43279219 0.0014480421 586 148
-0.16909036 -0.0081322687 0.4240686 0.001167243 970 246
-0.16969389 -0.0082604894 0.4316608 0.0011924511 958 243
-0.16815557 -0.0082863178 0.43389028 0.0012208433 911 231
-0.16726598 -0.0083451578 0.43782783 0.0012773724 878 222
-0.16760136 -0.0084673688 0.44507834 0.0013168852 825 209
-0.16701367 -0.0085454723 0.44999966 0.0013784984 732 185
-0.16410443 -0.0085052717 0.44866452 0.0013499113 767 194
-0.16272472 -0.0085443323 0.45147997 0.0014101729 741 188
-0.16371308 -0.0087104263 0.46099526 0.0015454423 618 156
-0.15805706 -0.0085227136 0.45175403 0.0013828655 718 182
-0.15623586 -0.0085394802 0.45330825 0.001337046 787 199
-0.15497386 -0.0085876985 0.45650795 0.0013977257 736 186
-0.15356688 -0.0086291227 0.45932469 0.0014347309 693 175
-0.15142496 -0.0086298408 0.4599494 0.0014316725 705 178
-0.15097061 -0.0087281438 0.46575412 0.0016030123 594 150
-0.14895825 -0.0087379348 0.46681541 0.0017414594 542 137
-0.14387602 -0.0085652592 0.45809248 0.0013746446 736 186
-0.14162675 -0.0085585704 0.45821106 0.0013522813 759 192
-0.13930452 -0.0085471999 0.45805317 0.001367708 779 197
-0.1375476 -0.0085707 0.45974049 0.0014047778 731 185
-0.13578406 -0.008594525 0.46142399 0.001412989 715 181
-0.13398424 -0.0086167827 0.46300262 0.0014840508 685 173
-0.1328813 -0.0086853132 0.46704915 0.0015153738 625 158
-0.12983581 -0.008627045 0.46425587 0.0013830725 723 183
-0.12842312 -0.0086771343 0.46727222 0.0013861073 737 187
-0.12658326 -0.0086995838 0.46878245 0.0013758425 751 190
-0.12537138 -0.0087667294 0.4726842 0.0014128858 704 178
-0.12433012 -0.0088484045 0.47735453 0.0014331489 697 176
-0.12309212 -0.008918779 0.48140082 0.0015132861 695 176
-0.1211494 -0.0089397458 0.48276448 0.0014272075 698 177
-0.11862577 -0.0089178272 0.48179448 0.0014006174 723 183
-0.11802848 -0.0090426579 0.48873785 0.0014449655 693 175
-0.11556775 -0.0090268049 0.48806331 0.0014219085 704 178
-0.1135188 -0.0090431245 0.48911247 0.0015082482 707 179
-0.11155494 -0.0090670241 0.49055672 0.0014501207 725 183
-0.10928693 -0.0090666804 0.49067512 0.0014593239 750 190
-0.10724191 -0.0090852128 0.49180105 0.0013817932 739 187
-0.1052902 -0.0091126217 0.49339461 0.0013816156 744 188
-0.10342899 -0.0091492468 0.49547479 0.0014123081 704 178
-0.10168465 -0.0091980975 0.49820557 0.0014413664 705 178
-0.10033055 -0.0092853243 0.50300407 0.0015566663 662 167
-0.098340534 -0.0093164304 0.5047521 0.0015584447 656 166
-0.096278436 -0.0093420511 0.50619227 0.0015970747 613 155
-0.094019286 -0.0093493471 0.50662953 0.0015454426 617 156
-0.092747875 -0.0094577391 0.51253563 0.0016626494 598 151
-0.090511337 -0.0094708065 0.51326716 0.0016368722 588 149
-0.08911144 -0.0095744655 0.51889974 0.0015984332 581 147
-0.086203761 -0.0095173717 0.51581216 0.0016017742 579 146
-0.083636567 -0.0094956988 0.51463664 0.0015994103 585 148
-0.081317373 -0.0095017413 0.51495606 0.0015950677 591 149
-0.079155922 -0.009527131 0.51631755 0.0016142169 581 147
-0.076985836 -0.0095530227 0.51770031 0.0016251509 574 145
-0.074287012 -0.0095128622 0.51549804 0.0016345767 595 150
-0.071881428 -0.0095088398 0.51524931 0.0016570822 585 148
-0.069671609 -0.0095313257 0.51643246 0.0016950086 588 149
-0.067401648 -0.0095468825 0.51723611 0.0016031848 579 146
-0.064997464 -0.0095438706 0.5170303 0.0016122733 578 146
-0.06268499 -0.0095546078 0.51756632 0.0015903533 597 151
-0.060845364 -0.0096411193 0.52220392 0.0016890306 588 149
-0.058868051 -0.0097120423 0.52599442 0.0017444867 559 141
-0.057445411 -0.0098845027 0.53528088 0.0017542832 523 132
-0.05551127 -0.0099804802 0.54042304 0.0017498399 518 131
-0.05367253 -0.010103439 0.54702413 0.0017958554 499 126
-0.051260676 -0.010125321 0.54815149 0.0017649815 499 126
-0.04832818 -0.010041299 0.54354572 0.0017024813 536 136
-0.044951692 -0.0098507842 0.53317755 0.0016972321 570 144
-0.042191498 -0.0097810887 0.52935082 0.0015920725 602 152
-0.039603092 -0.0097450996 0.52735001 0.0015661353 643 163
-0.036822837 -0.0096540991 0.52237451 0.0015125507 670 170
-0.034265239 -0.0096128182 0.52009153 0.0014728407 656 166
-0.031790927 -0.0095904414 0.51883364 0.0015271235 628 159
-0.029479202 -0.0096174637 0.52025056 0.0017041683 589 149
-0.027068423 -0.0096140942 0.52002591 0.0018006428 532 134
-0.024496848 -0.0095474031 0.51637912 0.0016948984 536 136
nan nan nan 0 577 146
nan nan nan 0 553 140
-0.015926147 -0.0087661874 0.47403499 0.0015953517 590 149
-0.013524955 -0.0086306231 0.46668044 0.0015581001 646 163
-0.011068565 -0.0084017729 0.45428589 0.0014110752 712 180
-0.0089618582 -0.0083933966 0.45381632 0.0014866252 737 187
-0.0068308963 -0.0083502559 0.45147052 0.0013570901 766 194
-0.0046761502 -0.008227366 0.44481659 0.001294612 817 207
-0.0026111973 -0.0081936736 0.44298887 0.0012793203 858 217
-0.00056320254 -0.0081619276 0.44126984 0.0012455764 910 230
0.0014729314 -0.0081522772 0.44074887 0.0011986507 923 234
0.0034988117 -0.008129999 0.43954858 0.0012234394 946 240
0.0055301078 -0.0081320424 0.43966672 0.0011946278 968 245
0.0075801308 -0.0081531331 0.4408181 0.0011968177 963 244
0.0096151661 -0.0081525845 0.44080287 0.0012091612 943 239
0.011639893 -0.0081450148 0.44041115 0.0011914101 937 237
0.013637497 -0.0081235403 0.43927079 0.0012088463 926 234
0.015621274 -0.0081004566 0.4380464 0.0012261359 931 236
0.01760821 -0.0080841146 0.43718928 0.0012598138 932 236
0.019569313 -0.0080604944 0.43594116 0.0011775028 960 243
0.021495719 -0.0080283191 0.4342328 0.0011723499 957 242
0.023459977 -0.0080145663 0.43352309 0.0012223155 966 245
0.025338473 -0.0079759788 0.43147191 0.0011764875 970 246
0.027298555 -0.0079668248 0.43101487 0.0012162776 941 238
0.029268259 -0.0079615302 0.43076834 0.0011800821 954 242
0.031207075 -0.0079490421 0.43013409 0.0012251061 941 238
0.033110276 -0.0079295188 0.42912021 0.0012201191 939 238
0.034894422 -0.007885294 0.42677021 0.001164621 1018 255
0.036823414 -0.007876778 0.42635342 0.0011337615 1022 255
0.0387442 -0.0078674573 0.42589346 0.0011353834 1031 255
0.04067767 -0.0078614894 0.42561504 0.0011460468 1008 255
0.042559836 -0.0078466106 0.42485398 0.0011618922 1014 255
0.044449046 -0.0078342846 0.42423043 0.0011336528 1022 255
0.046268135 -0.0078111584 0.42302108 0.0010974131 1068 255
0.048246037 -0.0078156302 0.42330515 0.0011327678 1026 255
0.050202768 -0.0078164581 0.42339039 0.0011554718 1027 255
0.052090708 -0.0078069144 0.42291194 0.0011228856 1047 255
0.054015327 -0.0078033586 0.4227556 0.0011848132 1020 255
0.055950936 -0.0078015812 0.42269289 0.0011758308 965 244
0.057901032 -0.0078018764 0.42273962 0.0011721475 1021 255
0.059596658 -0.0077689807 0.42098439 0.0011988487 1014 255
0.061906055 -0.007815646 0.42353657 0.0012319409 945 239
0.063769519 -0.0078048813 0.4229725 0.0011681324 966 245
0.065701514 -0.0078028929 0.42287943 0.0011783924 945 239
0.067356281 -0.007769045 0.42105448 0.0011517901 1003 254
0.069260508 -0.0077650575 0.42084244 0.0011583676 987 250
0.071185626 -0.0077635674 0.42075977 0.0012430878 927 235
0.073782317 -0.0078334576 0.42453912 0.0012014915 920 233
0.075434156 -0.007802011 0.42281964 0.0011960099 941 238
0.077406958 -0.0078045106 0.42293254 0.0012406496 917 232
0.0799089 -0.0078589283 0.42585081 0.0013054268 886 224
0.081734091 -0.0078457734 0.42509905 0.001273221 859 217
0.083818875 -0.0078575704 0.42569032 0.0012432268 880 223
0.08618366 -0.0078944769 0.42763227 0.0012866361 833 211
0.088049382 -0.0078850398 0.42705372 0.0012628449 846 214
0.089584075 -0.0078470195 0.4249171 0.001245258 879 223
0.091986813 -0.0078850342 0.42688692 0.0012477009 856 217
0.094482087 -0.0079292227 0.42917842 0.0012731331 853 216
0.097360849 -0.0080031203 0.43306431 0.0013349794 803 203
0.099940144 -0.008049923 0.43546957 0.0014259502 773 196
0.10237327 -0.0080833398 0.43713596 0.0013675444 754 191
0.10631002 -0.0082318941 0.44501144 0.0014527513 714 181
0.11094848 -0.0084281191 0.4554421 0.0014392665 693 175
0.11590221 -0.0086405426 0.46672332 0.0014207331 752 190
0.11839011 -0.0086647328 0.46781471 0.0013051603 783 198
0.12015024 -0.0086357454 0.46601787 0.0012635271 896 227
0.12212221 -0.0086227395 0.46506646 0.0011522709 968 245
0.12448299 -0.0086371601 0.46557555 0.0011309513 1027 255
0.12677519 -0.0086464137 0.46578589 0.0011430574 1029 255
0.12873293 -0.0086329272 0.46475142 0.0010986091 1072 255
0.13047013 -0.0086053386 0.46293867 0.0011515027 1037 255
0.13269594 -0.0086103501 0.46285927 0.0011460395 1017 255
0.13491815 -0.0086149704 0.46273649 0.0011286729 1019 255
0.13669524 -0.0085914703 0.46108156 0.0011264012 1026 255
0.13854608 -0.0085732602 0.45968932 0.0011422243 999 253
0.14053126 -0.0085637895 0.45874316 0.0011470283 996 252
0.14276266 -0.0085693849 0.45857978 0.0012283006 938 238
0.14513141 -0.0085829357 0.45881602 0.0011992182 934 236
0.14702296 -0.0085682804 0.45751876 0.0012064392 913 231
0.14910214 -0.0085648261 0.45679423 0.0011891937 945 239
0.15140425 -0.0085740918 0.4567208 0.0012013961 925 234
0.15315743 -0.008552447 0.45497417 0.0012526279 876 222
0.15507337 -0.0085403631 0.45371041 0.0013134734 848 215
0.15521221 -0.0084320614 0.44731566 0.0012311412 873 221
0.15433474 -0.0082721878 0.43817723 0.001196712 938 238
0.15584418 -0.0082427813 0.43593624 0.0011474348 992 251
0.1566391 -0.0081768436 0.43174231 0.0011139403 1082 255
0.15865889 -0.0081757195 0.43094769 0.0010416962 1178 255
0.1601449 -0.0081474679 0.42869669 0.0010161021 1302 255
0.16211675 -0.0081443312 0.42774102 0.00099028426 1348 255
0.16428798 -0.0081511661 0.42727944 0.0010137138 1290 255
0.16653304 -0.0081614517 0.42696804 0.0010322544 1209 255
0.16789149 -0.008128562 0.42437154 0.0010835686 1173 255
0.17022465 -0.0081430869 0.42422414 0.0011230044 1057 255
0.17326413 -0.008190657 0.42576373 0.0013526799 829 210
0.17588133 -0.0082173878 0.42618468 0.0017018203 600 152
0.18090026 -0.0083544217 0.43228087 0.0018378635 479 121
nan nan nan 0 438 111
nan nan nan 0 339 86
nan nan nan 0 226 57
nan nan nan 0 165 41
nan nan nan 0 147 37
0.29215887 -0.012619532 0.64315283 0.004473384 145 36
nan nan nan 0 166 42
nan nan nan 0 171 43
0.27634171 -0.011562237 0.58459133 0.0054075955 145 36
0.28895965 -0.011965181 0.60336906 0.0060776048 104 26
0.29398543 -0.012048719 0.60599971 0.0077844658 91 23
0.30251738 -0.012272806 0.61569387 0.0091207493 70 17
0.30498582 -0.012248875 0.61296576 0.011417607 50 12
0.30375844 -0.012078462 0.60298783 0.011243404 56 14
0.30123803 -0.011860489 0.59074843 0.010078132 63 15
0.2980513 -0.01162078 0.57755446 0.0083128782 74 18
0.3022784 -0.011671968 0.57892472 0.0080045937 73 18
0.26929811 -0.010299195 0.50988489 0.0086138221 73 18
-0.18936439 -0.0048112832 0.31609279 0.0067881551 96 24
-0.18311946 -0.0046922872 0.30794784 0.0095208203 63 15
-0.17491291 -0.0045205476 0.29642251 0.00648996 78 19
-0.16675317 -0.0043470482 0.28486165 0.005349373 121 30
-0.16519055 -0.0043439958 0.28454021 0.0042770831 137 34
-0.16529028 -0.0043849908 0.28716752 0.0040225219 173 43
-0.16505106 -0.004417643 0.28931385 0.0039845966 182 46
-0.16560139 -0.0044722045 0.29296327 0.0044564125 155 39
-0.17153776 -0.0046745297 0.30636802 0.0061886497 110 27
-0.1702833 -0.0046828086 0.30713299 0.0047225701 118 29
-0.16840343 -0.0046738833 0.30683953 0.0041622892 152 38
-0.16888496 -0.0047309413 0.31094986 0.0045453995 153 38
-0.16934462 -0.0047884537 0.31516618 0.0055599776 127 32
-0.17210366 -0.0049126949 0.32385653 0.0081944354 84 21
-0.174309 -0.0050233626 0.33173957 0.0072475374 79 20
nan nan nan 0 93 23
nan nan nan 0 84 21
-0.29729009 -0.0088213068 0.58622062 0.0077566579 78 19
-0.29438028 -0.0088220751 0.58765095 0.0087025715 84 21
-0.29848844 -0.0090352939 0.60332835 0.0081746317 73 18
-0.29622793 -0.0090581095 0.60638106 0.0095025087 64 16
-0.29164529 -0.0090096565 0.6046983 0.011297206 61 15
-0.29119709 -0.0090892483 0.61164451 0.011298436 53 13
-0.29544845 -0.0093187392 0.62875253 0.0099760965 57 14
-0.30540085 -0.0097348224 0.65857697 0.0073977159 80 20
-0.30297759 -0.0097611165 0.66211337 0.0063586729 94 23
nan nan nan 0 111 28
nan nan nan 0 176 44
nan nan nan 0 174 44
-0.29542947 -0.009944384 0.68157887 0.0053302567 131 33
-0.29173985 -0.009931433 0.6823855 0.0057004443 130 32
-0.28583211 -0.00984181 0.6778726 0.0043989122 143 36
nan nan nan 0 172 43
nan nan nan 0 235 59
nan nan nan 0 328 83
nan nan nan 0 368 93
-0.16956738 -0.0061933817 0.4313769 0.0012774698 770 195
-0.16803569 -0.0062129498 0.43361831 0.0012133446 930 235
-0.16798984 -0.0062886276 0.4397594 0.0012827301 847 214
-0.16448104 -0.0062349471 0.43682787 0.0011721596 979 248
-0.16312571 -0.006262566 0.43955886 0.0013059104 902 228
-0.16522495 -0.0064252429 0.45176306 0.0013969094 743 188
-0.1640604 -0.0064635989 0.45522013 0.0014908831 666 168
-0.16399908 -0.0065470156 0.46183434 0.0015827223 600 152
-0.15804067 -0.0063940915 0.45173925 0.001411118 699 177
-0.15554418 -0.0063789687 0.4513323 0.0013629195 770 195
-0.15492606 -0.0064415266 0.45639747 0.0014120038 721 182
-0.15380889 -0.0064847982 0.46007797 0.0015129449 648 164
-0.1522698 -0.0065112608 0.46254426 0.0016121328 635 161
-0.15241994 -0.0066117644 0.47025368 0.0017330659 529 134
-0.1495782 -0.0065835258 0.46878535 0.0016226303 558 141
-0.1440326 -0.0064336718 0.45861652 0.0014515194 718 182
-0.14132176 -0.0064078299 0.45724881 0.0013890037 735 186
-0.13904952 -0.006401388 0.45723817 0.001477822 742 188
-0.13707702 -0.0064087589 0.45819023 0.0014202718 730 185
-0.13544159 -0.0064323712 0.46028194 0.0014075177 716 181
-0.13556996 -0.0065418542 0.46850348 0.0015588312 623 158
-0.13357309 -0.0065506832 0.46950096 0.0016067076 599 151
-0.13085811 -0.0065240026 0.46793056 0.0014132621 699 177
-0.12870331 -0.0065248231 0.46831006 0.0014687093 719 182
-0.12687951 -0.0065427404 0.46989703 0.0014000903 731 185
-0.12515472 -0.0065664761 0.47188395 0.0014222317 735 186
-0.12447596 -0.0066469135 0.47793043 0.0014196114 738 187
-0.12237304 -0.0066528372 0.47860372 0.0014254962 713 180
-0.12055036 -0.0066744946 0.48039162 0.001405995 714 181
-0.11857285 -0.0066882316 0.48159295 0.0014462018 710 180
-0.11766137 -0.0067637749 0.48723036 0.0014231853 704 178
-0.11544019 -0.0067655081 0.48753652 0.0014241959 726 184
-0.11293266 -0.0067501948 0.48659793 0.0013890464 726 184
-0.11092721 -0.006764879 0.48780653 0.0013832601 758 192
-0.10900202 -0.0067851678 0.48940527 0.0013937803 751 190
-0.10734707 -0.0068234927 0.4922919 0.0014219714 709 179
-0.10567578 -0.0068624122 0.49520922 0.0014913435 693 175
-0.10400867 -0.0069033294 0.4982588 0.0014691462 659 167
-0.10241756 -0.0069512525 0.50180274 0.0015027259 646 163
-0.10051757 -0.0069799419 0.5039472 0.00152101 635 161
-0.098459825 -0.0069987755 0.50536907 0.0014975296 646 163
-0.096360676 -0.0070155067 0.50662857 0.0016258953 616 156
-0.09481097 -0.0070740627 0.51089877 0.0015647181 608 154
-0.092844293 -0.0071036983 0.51307094 0.001654616 587 148
-0.090741046 -0.0071241609 0.51457149 0.0016231798 573 145
-0.088406608 -0.0071270824 0.5147965 0.0016341708 564 143
-0.086030647 -0.0071267253 0.51477659 0.0017108755 580 147
-0.083746761 -0.0071341922 0.51531422 0.0016625704 590 149
-0.081508502 -0.0071460945 0.51616532 0.0016009031 585 148
-0.079186879 -0.0071511841 0.51651764 0.0017111335 584 148
-0.076531708 -0.0071255337 0.51464397 0.0015800725 598 151
-0.074098095 -0.0071195308 0.51418388 0.0016425584 608 154
-0.071614124 -0.0071081324 0.51332939 0.0015485997 617 156
-0.069415487 -0.0071252454 0.51452953 0.0015493804 618 156
-0.067112751 -0.0071325046 0.51501405 0.0015722077 600 152
-0.064745709 -0.0071332119 0.51502204 0.00156574 599 151
-0.062462091 -0.0071435128 0.51571965 0.0017069638 602 152
-0.060822055 -0.0072311456 0.52199703 0.0017264877 546 138
-0.058863178 -0.0072865281 0.52594334 0.0018265276 539 136
-0.056598462 -0.0073071839 0.52738094 0.0017801416 537 136
-0.055610742 -0.0075019635 0.54138261 0.0017555698 509 129
-0.053465571 -0.0075515718 0.54490542 0.0018819248 494 125
-0.05113294 -0.0075782896 0.54677546 0.0018810647 505 128
-0.048241109 -0.0075206044 0.54255623 0.0018280018 515 130
-0.045286257 -0.0074462434 0.53713512 0.0016820739 547 138
-0.042248081 -0.0073487787 0.53004968 0.001598527 582 147
-0.039591555 -0.0073098033 0.52718502 0.001544141 613 155
-0.037014946 -0.0072814464 0.52508807 0.0015964516 643 163
-0.034275997 -0.0072149448 0.52024287 0.0015358396 626 158
-0.031646412 -0.0071631796 0.51646304 0.0016257577 576 146
-0.028911192 -0.007077123 0.51021391 0.0016717606 560 142
nan nan nan 0 602 152
nan nan nan 0 668 169
-0.020098038 -0.0065108296 0.46928 0.0015529045 688 174
-0.017852185 -0.0064820484 0.46717525 0.0014910595 667 169
-0.015619066 -0.0064506144 0.46488261 0.0014659723 676 171
-0.013178656 -0.0063099135 0.45471916 0.0014053293 742 188
-0.011053028 -0.0062951613 0.45363596 0.0014152728 745 189
-0.008937276 -0.0062804511 0.45255917 0.001376361 776 196
-0.0067859432 -0.0062241247 0.44848719 0.0013395816 775 196
-0.0046682139 -0.0061626718 0.44404942 0.0012930615 816 207
-0.0026123933 -0.0061506862 0.44317961 0.0012568813 857 217
-0.0005656383 -0.0061505362 0.44316602 0.0012732932 886 224
0.0014693238 -0.0061018267 0.43965715 0.0012277301 931 236
0.0035046407 -0.0061102556 0.44026873 0.0011844272 970 246
0.0055402187 -0.0061127823 0.44045854 0.001209278 979 248
0.0075782537 -0.0061159353 0.4406969 0.0011670679 968 245
0.0096158357 -0.0061174659 0.44082165 0.0011921837 956 242
0.011643316 -0.0061131562 0.44052887 0.0012044111 944 239
0.013620057 -0.0060874522 0.4386974 0.0012209386 936 237
0.015640451 -0.0060853884 0.43857265 0.0011885406 939 238
0.017633764 -0.0060744681 0.43781242 0.0012470562 939 238
0.019588815 -0.0060539697 0.43636447 0.001208375 957 242
0.021564245 -0.0060430048 0.43560627 0.0011730372 966 245
0.0234803 -0.0060186912 0.43388802 0.0011780218 959 243
0.025413597 -0.0060022715 0.43274087 0.0011812348 994 252
0.027320798 -0.0059825303 0.43135601 0.0012117003 989 250
0.029326683 -0.005985612 0.43161842 0.0011914817 948 240
0.031357747 -0.0059931139 0.43220133 0.0012107191 911 231
0.033122294 -0.0059518283 0.4292669 0.0012312062 953 241
0.035019699 -0.0059377281 0.42829373 0.0011767402 998 253
0.037016958 -0.0059411605 0.42858595 0.0011518706 998 253
0.038738694 -0.0059022647 0.42582497 0.001203747 1007 255
0.040762603 -0.0059109419 0.42649612 0.0011908123 1001 253
0.042634279 -0.0058977595 0.42558983 0.0011704442 1011 255
0.044523798 -0.0058880984 0.42493707 0.0011331658 1032 255
0.046569824 -0.0058990764 0.42577299 0.0011779222 981 248
0.048652027 -0.0059135635 0.42686132 0.0011645622 973 246
0.050258428 -0.0058713402 0.42385438 0.0011593896 985 249
0.052274745 -0.0058783721 0.42440116 0.0011361687 1009 255
0.054211464 -0.0058762678 0.42428619 0.0011622836 977 247
0.056471486 -0.0059081363 0.42662156 0.0012439343 880 223
0.057936635 -0.0058574951 0.42299601 0.0012278644 955 242
0.059974633 -0.0058661834 0.42365137 0.0011792881 959 243
0.061897717 -0.0058634384 0.42347711 0.0011808475 949 240
0.064128563 -0.0058891224 0.4253521 0.0011997345 954 242
0.066041581 -0.0058849636 0.42506698 0.001184557 946 240
0.067549355 -0.0058459719 0.42226076 0.0011693124 979 248
0.069937922 -0.005883256 0.42495847 0.0011921452 932 236
0.072174326 -0.005906058 0.42660409 0.0012587924 914 231
0.074106142 -0.0059033879 0.42640346 0.0012532929 913 231
0.075994864 -0.0058975113 0.42596427 0.001231842 896 227
0.078528829 -0.0059407433 0.42906457 0.0012646961 854 216
0.07989417 -0.0058956165 0.42577529 0.0012659803 852 216
0.082305849 -0.0059280139 0.42807645 0.0013154455 829 210
0.084631242 -0.0059528258 0.42982048 0.0013537838 820 208
0.0866649 -0.0059564519 0.43002516 0.0013351375 831 210
0.08931271 -0.0060011824 0.43318677 0.0013740213 819 207
0.091214448 -0.0059949225 0.43265676 0.0013282866 792 200
0.092842758 -0.0059713437 0.43086624 0.0013008284 818 207
0.094866648 -0.0059736622 0.43093309 0.0012884318 821 208
0.097460076 -0.0060110139 0.4335143 0.0013296731 801 203
0.10052408 -0.0060753017 0.43802342 0.0013736234 750 190
0.10628846 -0.0062970384 0.45386449 0.0014340505 692 175
0.11199164 -0.006506647 0.46880639 0.0014255119 691 175
0.11400063 -0.0064977435 0.46798372 0.0012565048 828 210
0.11617654 -0.0064985082 0.46784142 0.0011946058 929 235
0.11827221 -0.0064948392 0.46736318 0.0011849506 936 237
0.12021279 -0.0064829378 0.4662756 0.0011816235 1005 255
0.12198951 -0.0064627756 0.46457711 0.0011568763 1049 255
0.12416556 -0.0064641004 0.46440518 0.001119954 1069 255
0.12657584 -0.0064773671 0.46507126 0.0011298901 1035 255
0.12845564 -0.0064634965 0.46376887 0.0011150449 1036 255
0.13034752 -0.0064506819 0.4625231 0.0011259867 1018 255
0.13217716 -0.0064352523 0.46107006 0.0011112947 1045 255
0.13426116 -0.0064325002 0.46050447 0.0011457953 1011 255
0.13636656 -0.0064308438 0.45999503 0.0012005867 983 249
0.13846485 -0.0064289095 0.45944291 0.0011938212 983 249
0.14065458 -0.0064312131 0.45916975 0.0012440792 924 234
0.1423659 -0.0064119031 0.4573302 0.0012376274 885 224
0.14486547 -0.0064281393 0.45800111 0.0012456204 891 226
0.14712319 -0.0064333272 0.45785755 0.0012232118 893 226
0.14926915 -0.0064335498 0.45733377 0.0012662217 849 215
0.15163198 -0.0064429808 0.45743668 0.0012850971 830 210
0.15243964 -0.0063869897 0.45287147 0.001251773 868 220
0.15246738 -0.006300312 0.44611597 0.001186982 935 237
0.15265837 -0.0062226374 0.4399862 0.0012004669 991 251
0.15365227 -0.0061793337 0.43627092 0.0010851903 1094 255
0.15477933 -0.006142457 0.4329896 0.0010541833 1124 255
0.1563203 -0.006122754 0.43089646 0.0010281597 1203 255
0.15800491 -0.0061091129 0.429205 0.0010203214 1247 255
0.16017644 -0.0061144042 0.42881566 0.0010085482 1239 255
0.16215725 -0.0061123744 0.42788327 0.0010326824 1245 255
0.16428524 -0.0061158733 0.4273085 0.0010221397 1212 255
0.16602556 -0.0061050318 0.42570391 0.0010772956 1174 255
0.16803277 -0.0061041471 0.42476642 0.0011965147 975 247
0.17135207 -0.0061503793 0.42707261 0.0014954014 692 175
0.17547357 -0.0062239738 0.43123293 0.001858101 495 125
nan nan nan 0 438 111
nan nan nan 0 392 99
nan nan nan 0 283 71
nan nan nan 0 183 46
0.28418234 -0.0095181139 0.651627 0.0042928001 150 38
nan nan nan 0 138 35
nan nan nan 0 161 40
0.2625595 -0.0085093807 0.57805115 0.004208378 175 44
nan nan nan 0 167 42
0.28193665 -0.0089444537 0.6043871 0.0062284269 125 31
0.2836135 -0.0089036552 0.60003275 0.0064550932 99 25
0.28763518 -0.0089365523 0.60066062 0.0090623461 78 19
0.29125988 -0.0089565683 0.60043705 0.010133821 58 14
0.2950536 -0.0089813257 0.60055727 0.010958697 53 13
0.29960418 -0.0090283919 0.60220146 0.012019919 53 13
0.30224726 -0.0090176137 0.6000371 0.01021047 59 14
nan nan nan 0 64 16
nan nan nan 0 74 18
nan nan nan 0 76 19
0.217384 -0.0062379725 0.41161603 0.0076833651 75 19
-0.1711982 -0.0029022833 0.28576222 0.00495244 130 32
-0.17830709 -0.0030485734 0.29984885 0.0059890039 128 32
-0.18227915 -0.0031432877 0.30890095 0.0093679493 75 19
-0.17207415 -0.0029930493 0.29394799 0.0076482701 64 16
-0.16838598 -0.0029545277 0.29004231 0.0052839397 107 27
-0.16597766 -0.0029379802 0.28836119 0.0046506599 153 38
-0.1638245 -0.0029256947 0.28716475 0.0035385748 187 47
-0.1639567 -0.0029543696 0.29005614 0.0035815907 187 47
-0.1633967 -0.0029709777 0.29183209 0.0037629458 189 47
-0.16909657 -0.0031027524 0.30499843 0.0053825714 133 33
-0.16893527 -0.0031284208 0.30781612 0.0053709475 103 26
-0.16827135 -0.0031451744 0.30982935 0.0046733557 142 36
-0.16805573 -0.0031707 0.31277838 0.0040702065 161 40
-0.16650018 -0.0031711909 0.31332475 0.0043392219 151 38
-0.17013134 -0.0032714251 0.32380328 0.0078439703 93 23
-0.17427446 -0.0033835401 0.3355535 0.0078600692 78 19
nan nan nan 0 83 21
nan nan nan 0 87 22
nan nan nan 0 80 20
-0.2989006 -0.0060369759 0.60419941 0.0083260695 71 18
-0.29499894 -0.0060187993 0.60390466 0.0098289568 68 17
-0.29021409 -0.0059820455 0.6017713 0.010767439 64 16
-0.28805491 -0.0059992122 0.60508609 0.011180607 61 15
-0.29954135 -0.006303912 0.63750738 0.014023901 48 12
-0.30082893 -0.0063981628 0.64876378 0.011250057 51 12
-0.30187565 -0.0064892578 0.65975225 0.0089509049 66 16
-0.30220127 -0.0065666568 0.66938788 0.0069379499 84 21
-0.29924548 -0.0065736691 0.67185766 0.0060166982 95 24
-0.26770416 -0.0059459275 0.60926938 0.0042021102 143 36
nan nan nan 0 187 47
-0.29067916 -0.0066024945 0.67995191 0.0046524145 145 36
-0.29019159 -0.0066669425 0.68825889 0.0052939863 132 33
nan nan nan 0 131 33
-0.27772725 -0.0065302276 0.67730224 0.0042952267 155 39
nan nan nan 0 181 45
nan nan nan 0 277 70
nan nan nan 0 323 81
nan nan nan 0 443 112
-0.16973935 -0.0042396826 0.4443658 0.00143227 705 178
-0.16427839 -0.0041550403 0.43631506 0.0011454871 978 248
-0.16036662 -0.0041079191 0.4321489 0.0011221436 1047 255
-0.1609623 -0.0041765342 0.44013232 0.0012837949 868 220
-0.16433546 -0.0043199612 0.45600778 0.0015309874 657 166
-0.16353954 -0.0043561487 0.46056423 0.0015761121 608 154
-0.15762872 -0.0042552324 0.45058441 0.0014599778 708 179
-0.15403175 -0.0042148768 0.44696563 0.0013984315 750 190
-0.15267897 -0.0042356635 0.44979903 0.0014848339 713 180
-0.15440123 -0.004343539 0.46187103 0.0015615617 652 165
-0.15275773 -0.0043584537 0.46404704 0.0016567089 585 148
-0.15223296 -0.0044061788 0.46969673 0.0017451969 511 129
-0.14748313 -0.0043312223 0.46223825 0.0015087742 636 161
-0.14424612 -0.0042991256 0.45931455 0.0014666491 688 174
-0.14031935 -0.0042451932 0.45402277 0.0014466898 728 184
-0.1387042 -0.004260614 0.45611939 0.0013914492 734 186
-0.13693348 -0.0042716623 0.45772651 0.0013984177 733 185
-0.13489585 -0.0042746011 0.45844281 0.0014263639 714 181
-0.13562609 -0.0043667518 0.46871254 0.001608619 592 150
-0.13371652 -0.0043755295 0.47001952 0.001581958 601 152
-0.13164391 -0.0043791737 0.47075427 0.0014723293 664 168
-0.12924394 -0.0043718694 0.47029045 0.001510454 662 167
-0.12718105 -0.0043759113 0.47102636 0.0014543763 671 170
-0.12526098 -0.0043850942 0.47229654 0.0014175408 708 179
-0.12387435 -0.0044136094 0.47563189 0.0013920974 728 184
-0.12252233 -0.004444412 0.47919834 0.0014466464 696 176
-0.12050388 -0.0044517303 0.4802165 0.0014345766 688 174
-0.11913897 -0.0044839191 0.48390198 0.001483049 701 177
-0.11716102 -0.0044938265 0.48516741 0.0014097217 711 180
-0.11471456 -0.0044857995 0.48448035 0.0014673889 722 183
-0.11245805 -0.0044850288 0.48456079 0.0014032847 745 189
-0.11074516 -0.0045063472 0.48701322 0.0014132418 704 178
-0.10896108 -0.0045255921 0.48922816 0.0014376836 691 175
-0.10791919 -0.0045771291 0.4949218 0.0016101754 640 162
-0.10628597 -0.0046052719 0.4980742 0.0015365875 633 160
-0.10452905 -0.0046291789 0.50075674 0.0015585519 610 154
-0.10280082 -0.0046554659 0.503685 0.0016351384 617 156
-0.10067943 -0.0046647512 0.50476259 0.0015718503 600 152
-0.098438501 -0.0046688067 0.50526291 0.0015325609 632 160
-0.096482262 -0.0046868883 0.50727063 0.0016229511 619 157
-0.094319202 -0.0046955706 0.50825107 0.0015939242 605 153
-0.092052735 -0.0046994165 0.5086984 0.0016688686 580 147
-0.090580218 -0.004745055 0.51366061 0.0016132704 574 145
-0.088293821 -0.0047493619 0.51414043 0.0016239865 570 144
-0.08586587 -0.0047460832 0.51379067 0.0016766281 583 147
-0.083515599 -0.0047470336 0.5138914 0.0015960208 591 149
-0.081182763 -0.0047490597 0.51410162 0.0016598887 576 146
-0.078688473 -0.0047414782 0.51326525 0.0016137238 580 147
-0.076159075 -0.0047312467 0.51213628 0.0015538499 607 154
-0.073566638 -0.0047163195 0.5104937 0.0016590431 614 155
-0.070870742 -0.0046935538 0.50799811 0.0015327871 627 159
-0.068986692 -0.0047248355 0.51134789 0.0016361935 613 155
-0.066689909 -0.0047290628 0.51176554 0.0015522472 618 156
-0.064520434 -0.0047429586 0.51322597 0.0016338284 622 157
-0.062115911 -0.0047399756 0.5128569 0.001531168 627 159
-0.059482016 -0.0047185612 0.51049137 0.0015891404 627 159
-0.058536507 -0.004834835 0.52301908 0.0016150188 600 152
-0.056367766 -0.0048557264 0.5252254 0.0016349274 567 143
-0.054576714 -0.0049124886 0.53130984 0.0016772613 552 140
-0.053140167 -0.0050079967 0.54158229 0.0018358554 512 129
-0.050991181 -0.0050424715 0.54525256 0.0017857458 504 127
-0.048446186 -0.005039332 0.54485506 0.0019184171 498 126
-0.045460004 -0.0049874457 0.53918821 0.0017091552 522 132
-0.04255921 -0.004939463 0.53394526 0.0016758663 555 140
-0.039632715 -0.0048824176 0.52772498 0.001608211 596 151
-0.036818039 -0.0048325802 0.52228647 0.001612911 588 149
-0.033111967 -0.0046505663 0.50256693 0.0016126798 580 147
nan nan nan 0 599 151
-0.026394222 -0.0043109949 0.46578735 0.0014420825 688 174
-0.023822263 -0.0042359657 0.45764279 0.0013584802 768 194
-0.021586388 -0.0042119082 0.45500872 0.0014324358 766 194
-0.019449705 -0.0042041056 0.45413339 0.0013535378 774 196
-0.017222092 -0.004172388 0.45067787 0.0013611871 763 193
-0.015117235 -0.0041657798 0.4499377 0.0013464849 778 197
-0.01297204 -0.0041441787 0.4475815 0.001297273 823 208
-0.011007104 -0.0041828915 0.45174253 0.0013992869 769 195
-0.0088769272 -0.0041622315 0.44949451 0.0013638638 764 193
-0.0067767468 -0.0041473173 0.44787058 0.0013347603 779 197
-0.0046830773 -0.0041250344 0.44545445 0.0013151108 800 202
-0.0026190914 -0.0041144667 0.44430706 0.0012932989 822 208
-0.00056613411 -0.0041074413 0.44354567 0.0012906914 821 208
0.0014767889 -0.0040920293 0.44188213 0.0012533844 916 232
0.0035087885 -0.0040817931 0.44078106 0.0011916877 954 242
0.0055493731 -0.0040853941 0.44117761 0.0011686765 978 248
0.0075796321 -0.0040815007 0.44076842 0.0011745298 955 242
0.0096040089 -0.0040767589 0.44027084 0.0011720987 965 244
0.011637443 -0.0040768459 0.44029817 0.0011882196 983 249
0.013668916 -0.0040763239 0.44026273 0.0011805608 955 242
0.015663303 -0.004066308 0.43920508 0.0011944042 935 237
0.017655104 -0.0040579946 0.43833411 0.0012038148 923 234
0.019689322 -0.0040601371 0.43859535 0.0011887213 938 238
0.021607354 -0.004040156 0.43646926 0.0012213027 955 242
0.023559548 -0.0040294272 0.4353447 0.0012417705 946 240
0.025530139 -0.0040232833 0.43471783 0.0011730893 970 246
0.027486064 -0.0040158918 0.43395808 0.0011742547 967 245
0.029482614 -0.0040150369 0.43390635 0.0012223762 956 242
0.031446833 -0.0040101684 0.43342245 0.0012052103 923 234
0.033399556 -0.0040045031 0.43285355 0.0012098599 908 230
0.035439879 -0.0040093875 0.43342614 0.0012135899 922 233
0.037340157 -0.0039987531 0.43232188 0.0012754129 917 232
0.039268043 -0.0039920034 0.43163785 0.0012250062 895 227
0.040926363 -0.0039598239 0.428204 0.0011835676 943 239
0.042876251 -0.0039575174 0.42800009 0.0011540026 1000 253
0.044594694 -0.0039349934 0.42560884 0.00114395 1015 255
0.046769228 -0.0039529158 0.42759153 0.0011551391 990 251
0.048786782 -0.0039566569 0.42803934 0.0012238993 945 239
0.050680202 -0.0039504324 0.42740753 0.0012004562 929 235
0.052546076 -0.003942606 0.42660037 0.0011790073 958 243
0.05459686 -0.0039487178 0.4272992 0.0012136175 919 233
0.056840688 -0.0039678798 0.42940789 0.0012484443 878 222
0.058568463 -0.0039509404 0.42760661 0.001222165 888 225
0.060243309 -0.0039316495 0.42554709 0.0012257894 939 238
0.062149536 -0.0039281994 0.42519826 0.0012171631 909 230
0.064365394 -0.0039439318 0.42692152 0.0012229101 901 228
0.066394754 -0.003947644 0.42733914 0.0012512173 937 237
0.068516769 -0.0039564921 0.42830759 0.0012219599 919 233
0.07041502 -0.0039522853 0.42785725 0.001252797 902 228
0.072701976 -0.0039695301 0.42972323 0.0013253001 819 207
0.074526176 -0.0039612651 0.42882109 0.0012520957 857 217
0.076537475 -0.0039631138 0.42900687 0.0012458817 892 226
0.079472698 -0.0040115071 0.43422335 0.0013155998 794 201
0.080668882 -0.003971898 0.42990595 0.0012952671 822 208
0.083801769 -0.0040272595 0.43585932 0.0013494581 773 196
0.085417345 -0.0040088189 0.43381599 0.0013564191 773 196
0.087968051 -0.0040341057 0.4364948 0.0013737951 762 193
0.089809693 -0.0040264726 0.43560135 0.0013503869 761 193
0.094099581 -0.0041265348 0.44634655 0.0014892936 680 172
nan nan nan 0 679 172
0.10153591 -0.0042660381 0.4612343 0.0015802546 648 164
0.10501363 -0.0043216003 0.46712011 0.0015500893 651 165
0.10817899 -0.0043623308 0.47138616 0.0014554943 663 168
0.11009211 -0.0043519554 0.47011447 0.0013438407 746 189
0.1119126 -0.0043383893 0.46848392 0.0012299606 872 221
0.1139518 -0.0043336558 0.46779224 0.0012232374 921 233
0.11606941 -0.0043320251 0.46741962 0.0011723501 961 243
0.11816784 -0.0043297508 0.46696094 0.0011616874 970 246
0.12008803 -0.0043211449 0.46580249 0.0011391996 1007 255
0.12201241 -0.0043129912 0.46467564 0.0011352403 1034 255
0.12411414 -0.0043112799 0.46422485 0.0011445348 1030 255
0.12633315 -0.004313631 0.46419215 0.0011558188 1030 255
0.12842488 -0.004311631 0.46367121 0.0011279671 1015 255
0.13014254 -0.0042973435 0.46180961 0.0011557798 1023 255
0.13244395 -0.0043024835 0.46201521 0.001151872 989 250
0.13471018 -0.0043063341 0.46205968 0.0012271267 951 241
0.13646485 -0.0042939689 0.46034247 0.0012137245 927 235
0.13863999 -0.0042950106 0.46004051 0.00122326 894 226
0.14065573 -0.0042911568 0.45919061 0.0012685837 835 211
0.14263898 -0.0042864438 0.45822525 0.0013312119 837 212
0.14421006 -0.0042696656 0.45594743 0.0012965582 838 212
0.14641945 -0.0042719999 0.45568654 0.0013550757 841 213
0.14896344 -0.0042838892 0.45641688 0.0012680279 841 213
0.14863662 -0.0042140512 0.44842049 0.0012401519 904 229
0.14910805 -0.0041684769 0.44299456 0.0011551904 975 247
0.15100558 -0.0041634752 0.44186002 0.0011110263 1045 255
0.15218215 -0.004139001 0.43863544 0.0010846882 1121 255
0.15255164 -0.004093525 0.43316796 0.0010525822 1201 255
0.15415928 -0.0040820362 0.43127787 0.0010258205 1214 255
0.15577547 -0.0040710689 0.42941803 0.0010624718 1203 255
0.15785603 -0.0040723649 0.42882463 0.0010317081 1206 255
0.16001463 -0.0040756147 0.42840713 0.0010319783 1181 255
0.16202897 -0.0040751551 0.42757004 0.0010506575 1171 255
0.1639889 -0.0040733558 0.42656362 0.0011047405 1094 255
0.16614401 -0.0040763887 0.426034 0.001285052 871 221
0.17038795 -0.0041299788 0.4307473 0.0015938033 611 155
0.17637184 -0.0042239595 0.43961221 0.0018292464 486 123
nan nan nan 0 417 105
nan nan nan 0 325 82
nan nan nan 0 222 56
0.27899498 -0.0063770278 0.65761954 0.004439468 164 41
nan nan nan 0 150 38
0.28345793 -0.0063346163 0.65001196 0.004574006 148 37
nan nan nan 0 173 43
nan nan nan 0 183 46
0.26005459 -0.0056235772 0.57257712 0.0047092671 158 40
0.28152737 -0.0060229613 0.61161774 0.0068439152 114 28
0.2823886 -0.0059776069 0.6053986 0.0069966097 92 23
0.28506786 -0.0059712823 0.60315156 0.0086490503 71 18
0.28389859 -0.0058853081 0.59289795 0.012180815 49 12
0.28795075 -0.0059082266 0.59365457 0.011153621 53 13
0.2909289 -0.0059088678 0.59219974 0.01215151 58 14
0.29418114 -0.0059150076 0.59133768 0.011051594 59 14
0.29718313 -0.0059160423 0.59001815 0.010197167 64 16
nan nan nan 0 70 17
nan nan nan 0 75 19
nan nan nan 0 76 19
0.19229783 -0.0036818681 0.36413094 0.0085303709 78 19
-0.17039476 -0.0014480135 0.28441697 0.0043549612 151 38
-0.16991016 -0.0014562072 0.28572476 0.0042089806 155 39
-0.17058465 -0.0014745616 0.28907999 0.0048872367 136 34
nan nan nan 0 94 23
-0.17367017 -0.0015275067 0.29914308 0.0090615619 58 14
-0.16938218 -0.0015029439 0.29427573 0.0054664789 100 25
-0.1665048 -0.0014905712 0.29186362 0.004876615 127 32
-0.16388667 -0.001480318 0.28993374 0.0039738608 163 41
-0.16180292 -0.0014747494 0.28898796 0.0034902266 187 47
-0.16230471 -0.0014928605 0.29275146 0.0034312431 208 52
-0.16501722 -0.0015318275 0.30068153 0.0047394601 160 40
-0.16760986 -0.0015703985 0.30861694 0.0056114183 108 27
-0.1675528 -0.0015846355 0.311849 0.0047897589 133 33
-0.16769062 -0.001601003 0.31557256 0.0040059066 164 41
-0.1690089 -0.0016290636 0.32167566 0.0053245481 120 30
-0.1685061 -0.0016399443 0.32445654 0.0058849636 108 27
nan nan nan 0 85 21
-0.16960832 -0.0016832685 0.33447781 0.0077163335 81 20
nan nan nan 0 81 20
nan nan nan 0 76 19
-0.29440424 -0.0030109901 0.60271084 0.0082520824 73 18
-0.28961936 -0.0029925031 0.60056239 0.0085333474 72 18
-0.28733721 -0.0029997604 0.60360348 0.010582646 65 16
-0.28834951 -0.003041924 0.6137138 0.012106821 51 12
-0.29788685 -0.0031758707 0.64244622 0.013081111 47 11
-0.2988919 -0.0032207486 0.65325922 0.014962579 47 11
-0.30151564 -0.0032842308 0.66789776 0.011256346 54 13
-0.2998473 -0.0033018412 0.67323774 0.0082916254 71 18
-0.29521379 -0.0032868276 0.67190737 0.0069326721 94 23
nan nan nan 0 113 28
nan nan nan 0 180 45
nan nan nan 0 167 42
nan nan nan 0 135 34
-0.28184089 -0.0033219238 0.6873619 0.0050009331 126 31
-0.2756407 -0.0032873948 0.68174034 0.0051167523 135 34
nan nan nan 0 165 41
nan nan nan 0 213 54
nan nan nan 0 305 77
nan nan nan 0 339 86
-0.16970213 -0.0021515819 0.45073605 0.0016203492 546 138
-0.16224864 -0.0020833621 0.43723541 0.0013174309 813 206
-0.16056509 -0.0020884245 0.43906081 0.0012723163 848 215
-0.16001989 -0.00210862 0.44404706 0.0012742608 843 213
-0.15849753 -0.0021163046 0.44637871 0.001327167 825 209
-0.15672055 -0.0021207505 0.44800201 0.0013522338 772 195
-0.15345313 -0.0021048745 0.44529974 0.0013134505 806 204
-0.15176655 -0.0021105425 0.44712368 0.001354965 791 200
-0.1504591 -0.0021217158 0.45009097 0.0014461196 690 175
-0.15339147 -0.0021938465 0.46598452 0.0016856191 549 139
-0.15097103 -0.0021903969 0.46581516 0.001762231 538 136
-0.14391118 -0.0021185488 0.4510543 0.0014228821 724 183
-0.14123124 -0.0021100005 0.44972521 0.0013311758 790 200
-0.1392442 -0.0021117027 0.45055425 0.00129847 829 210
-0.13716428 -0.0021120266 0.45106533 0.0013564627 778 197
-0.13659905 -0.0021360463 0.45661828 0.0013790957 742 188
-0.13481979 -0.0021415413 0.4581936 0.0014532253 695 176
-0.13596258 -0.0021943729 0.46988443 0.0016140334 589 149
-0.13327459 -0.002186093 0.46847478 0.0015285603 636 161
-0.1320551 -0.0022020258 0.47223306 0.0015301552 620 157
-0.13047381 -0.0022123617 0.47477365 0.0015314223 627 159
-0.12859429 -0.0022179082 0.47626802 0.0015057983 650 164
-0.12640491 -0.0022182111 0.47661692 0.0015741043 640 162
-0.12475047 -0.0022280784 0.47900271 0.0015107336 679 172
-0.12266503 -0.0022304661 0.47976297 0.001473885 700 177
-0.12078653 -0.002236774 0.48134908 0.001474402 677 171
-0.11871429 -0.0022396634 0.48218277 0.0014501397 677 171
-0.11652882 -0.0022404862 0.48255494 0.0014741374 684 173
-0.11437289 -0.0022419204 0.48304245 0.0014763508 692 175
-0.11279371 -0.0022549417 0.48601168 0.0014467132 680 172
-0.11102941 -0.0022647157 0.48826748 0.001521786 665 168
-0.10960707 -0.0022820141 0.49213254 0.0015378081 641 162
-0.10825005 -0.0023014331 0.49644282 0.001530806 629 159
-0.10648082 -0.0023127384 0.49899074 0.0016424425 606 153
-0.10469154 -0.0023240976 0.50153816 0.0015626556 617 156
-0.1030836 -0.0023400867 0.50507325 0.0015921586 598 151
-0.1009474 -0.0023445459 0.50610846 0.0015839328 600 152
-0.098532036 -0.0023425785 0.50574505 0.0015510422 602 152
-0.096191391 -0.0023423356 0.50574303 0.0015690228 612 155
-0.09397731 -0.0023452388 0.50641006 0.0015574755 613 155
-0.092084922 -0.0023565225 0.50887728 0.0016208313 587 148
-0.090290107 -0.0023709578 0.51201618 0.0016817269 575 145
-0.088029996 -0.0023736213 0.51260442 0.0016304005 563 142
-0.085707799 -0.0023747117 0.51284492 0.0016198654 586 148
-0.08325389 -0.0023721114 0.51228082 0.0016745563 602 152
-0.080684662 -0.0023659773 0.51094669 0.0016139982 582 147
-0.078360617 -0.0023668802 0.51112592 0.0016614846 581 147
-0.075970933 -0.0023657952 0.51086998 0.0015792651 599 151
-0.073208794 -0.0023526717 0.50800908 0.0015754702 597 151
-0.070877589 -0.0023529865 0.50804538 0.001570584 622 157
-0.06874083 -0.0023599993 0.50952351 0.0015752027 598 151
-0.066593945 -0.0023671486 0.51102692 0.0015574606 616 156
-0.06427899 -0.002368628 0.51130283 0.0015578655 609 154
-0.062044069 -0.0023732819 0.51226097 0.0015690789 598 151
-0.059397645 -0.0023619405 0.50976431 0.0016182436 633 160
-0.057076864 -0.002363147 0.50997406 0.0015919061 649 164
-0.055337809 -0.0023895772 0.51562506 0.0016318198 620 157
-0.054014791 -0.0024371524 0.52583575 0.001621525 576 146
-0.051816184 -0.0024478361 0.52808481 0.001681229 567 143
-0.050470937 -0.0025018747 0.53968525 0.0017534534 520 131
-0.04831646 -0.0025193256 0.54339164 0.0018239518 491 124
-0.045814034 -0.0025195503 0.54338253 0.0018461331 486 123
-0.04280531 -0.0024903456 0.53702807 0.0018391514 526 133
-0.039459098 -0.0024367112 0.52540833 0.0016847011 543 137
nan nan nan 0 588 149
nan nan nan 0 623 158
-0.028275354 -0.0021406377 0.46143562 0.0014777906 709 179
-0.025783569 -0.0021109965 0.45500621 0.0013265711 792 200
-0.023416981 -0.0020872578 0.44985223 0.0013542179 802 203
-0.021381127 -0.0020912469 0.45067716 0.0013933459 817 207
-0.019190289 -0.0020793036 0.4480713 0.0012990953 828 210
-0.017124224 -0.0020796272 0.44811174 0.0013478596 804 204
-0.015035588 -0.002076922 0.44750252 0.0013447006 814 206
-0.012896967 -0.0020653498 0.44498608 0.0012662283 853 216
-0.010837062 -0.0020643857 0.44475856 0.0013213793 802 203
-0.0088492902 -0.0020799255 0.44808981 0.0013143732 799 202
-0.0067327186 -0.0020654381 0.44495547 0.001311701 806 204
-0.0046771481 -0.0020651571 0.4448851 0.0013265865 821 208
-0.0026230789 -0.0020656183 0.44497821 0.0013474162 801 203
-0.00056576839 -0.0020576266 0.44325382 0.0013397087 818 207
0.0014790229 -0.0020543335 0.44254526 0.0013196724 839 212
0.0035250103 -0.0020555595 0.44281366 0.00123998 864 219
0.0055743544 -0.0020571232 0.44315839 0.0012090398 916 232
0.0075851223 -0.0020474349 0.44108242 0.0011747367 959 243
0.0096250512 -0.0020480535 0.44123033 0.0011741669 963 244
0.011660608 -0.0020476878 0.4411695 0.001145244 1003 254
0.013698516 -0.0020477828 0.44121104 0.0011565003 983 249
0.015703 -0.0020435033 0.44031322 0.0012174957 970 246
0.017716326 -0.0020412239 0.4398492 0.0011871507 951 241
0.019706544 -0.0020370244 0.43897423 0.0012105855 947 240
0.021775341 -0.0020409736 0.4398579 0.0012360538 934 236
0.023640981 -0.0020268315 0.43684492 0.0011966844 931 236
0.025637506 -0.0020252515 0.43654153 0.0011983254 936 237
0.027637495 -0.0020241556 0.43634447 0.0012652144 913 231
0.02959246 -0.0020201353 0.43551874 0.0012114269 908 230
0.031500783 -0.0020136447 0.43416184 0.0012433419 925 234
0.033511858 -0.0020141057 0.43430507 0.0012686528 896 227
0.035602212 -0.0020190103 0.43540767 0.0012369725 908 230
0.03762275 -0.0020196436 0.43559006 0.0012394161 881 223
0.039560232 -0.0020159804 0.43484619 0.0012830914 841 213
0.041630104 -0.0020190913 0.43556374 0.0012457162 866 219
0.04313783 -0.0019959065 0.43060815 0.0012529753 912 231
0.045059673 -0.0019930797 0.43004358 0.0011944306 937 237
0.04698763 -0.00199075 0.42958546 0.0012192528 917 232
0.049031876 -0.0019933362 0.43018714 0.0012420352 907 230
0.051137846 -0.0019981335 0.43126458 0.0013203686 863 218
0.053160109 -0.0019994231 0.43158326 0.0012489987 867 219
0.055041298 -0.0019955051 0.43077564 0.0012725998 842 213
0.05797793 -0.0020287926 0.43799743 0.0012999409 811 205
0.059395287 -0.0020084656 0.43364161 0.0012510048 856 217
0.061085593 -0.0019983915 0.43149552 0.0012287732 916 232
0.063486196 -0.0020114572 0.43434191 0.0013024329 810 205
0.065119952 -0.0020001698 0.43192551 0.0012838558 834 211
0.067000359 -0.0019969041 0.43123642 0.0012453869 876 222
0.06934002 -0.0020071194 0.43345353 0.0012985977 865 219
0.072468542 -0.0020389578 0.4403348 0.0013015362 823 208
0.074389137 -0.0020360022 0.43969581 0.0013650269 755 191
0.07631842 -0.0020334346 0.439134 0.0013342074 768 194
