# .PCD v0.7 - Point Cloud Data file format
VERSION 0.7
FIELDS x y z noise intensity gray
SIZE 4 4 4 4 2 1
TYPE F F F F U U
COUNT 1 1 1 1 1 1
WIDTH 843
HEIGHT 1
VIEWPOINT 0 0 0 1 0 0 0
POINTS 843
DATA ascii
-0.14386828 -0.050822806 0.37844095 0.0014338958 703 149
-0.14328255 -0.051262517 0.38249105 0.0015617763 614 130
-0.14097162 -0.051088393 0.38194165 0.0015073856 648 138
-0.1388896 -0.050993763 0.38195884 0.0014638401 683 145
-0.13672434 -0.050865635 0.38169816 0.0013604396 762 162
-0.13504913 -0.050918832 0.38277304 0.0013882885 740 157
-0.13334526 -0.05096253 0.38375381 0.0014062522 727 155
-0.13156898 -0.050979368 0.38450927 0.0014589678 725 154
-0.13036419 -0.051221233 0.38694134 0.0014084928 722 153
-0.12849107 -0.051203653 0.38739255 0.0013750836 759 161
-0.12677333 -0.051248368 0.38829219 0.0014083955 736 156
-0.12550701 -0.051479571 0.39058477 0.001454527 716 152
-0.12395315 -0.051597938 0.39200231 0.0014676828 689 146
-0.12209085 -0.051589541 0.39243564 0.0014330416 714 152
-0.12042281 -0.051664244 0.39348 0.0014839584 706 150
-0.11916491 -0.051919963 0.3958846 0.0014898076 665 141
-0.11690877 -0.051741961 0.39496189 0.0015963448 628 133
-0.11511461 -0.051765975 0.3955597 0.0015679178 612 130
-0.11322353 -0.051746495 0.39580521 0.0015752452 629 134
-0.11143771 -0.051775273 0.39640066 0.0015823623 604 128
-0.10883037 -0.051416885 0.3940109 0.0017118937 576 122
-0.10615824 -0.051015075 0.39126509 0.0016380529 566 120
-0.1037555 -0.050730951 0.38940009 0.0016671909 582 124
-0.10161989 -0.05056965 0.38845828 0.0016384211 582 124
-0.099659562 -0.050491326 0.38813615 0.0016429378 567 120
-0.097483695 -0.050298899 0.38691986 0.0016949042 542 115
-0.09546759 -0.050183237 0.38627723 0.0017621329 525 111
-0.093103975 -0.049876969 0.38415089 0.0017221665 525 111
-0.090647481 -0.049508043 0.38152486 0.0016257776 584 124
-0.085906737 -0.047852065 0.36895853 0.0015222478 649 138
-0.084888019 -0.048244182 0.37216619 0.0015065519 652 139
-0.083291076 -0.048317138 0.37290126 0.0016095678 607 129
-0.080724292 -0.047818661 0.36921313 0.0014812681 671 143
-0.078884825 -0.047738798 0.36874408 0.001441274 699 149
-0.077401154 -0.047875479 0.36993718 0.0014799989 671 143
-0.075660527 -0.047855806 0.36991218 0.0015207827 680 144
-0.07444185 -0.048172992 0.37248191 0.0015080976 643 137
-0.073071897 -0.048404977 0.3743847 0.0015468074 642 136
-0.071793675 -0.048710432 0.37684783 0.001529043 645 137
-0.070434548 -0.048974812 0.37898561 0.0015741449 631 134
-0.069638416 -0.04965407 0.38432723 0.0015669158 612 130
-0.06841857 -0.050058819 0.3875379 0.0016475084 597 127
-0.068982005 -0.05182502 0.40128392 0.0016736239 558 118
-0.067926489 -0.052438784 0.40610227 0.0017787528 520 110
-0.069420509 -0.055111378 0.42686138 0.001902629 461 98
-0.068409957 -0.055893563 0.43297514 0.0019618839 437 93
-0.066808172 -0.056225192 0.43559304 0.001895502 457 97
-0.06531129 -0.05666839 0.43906945 0.0018729899 462 98
-0.063525736 -0.056881458 0.44075722 0.0018524622 477 101
-0.061775532 -0.057141278 0.44280201 0.0017743335 503 107
-0.060117427 -0.057506967 0.4456622 0.001805433 489 104
-0.058341924 -0.057782244 0.44781706 0.001906533 482 102
-0.05651553 -0.058025464 0.44971913 0.001896192 477 101
-0.054517675 -0.058104437 0.45034415 0.0017069082 532 113
-0.052933015 -0.058647465 0.45456219 0.0017576932 507 108
-0.051177442 -0.059038069 0.4575955 0.0018865181 484 103
-0.049196396 -0.059190959 0.45878312 0.0018476191 477 101
-0.04635125 -0.058271248 0.4516544 0.0017568116 527 112
-0.044267606 -0.058267426 0.45162231 0.0016796107 545 116
-0.042383391 -0.058538668 0.45371985 0.0016822978 542 115
-0.040236473 -0.058456391 0.45307571 0.0016953098 545 116
-0.038040027 -0.058289215 0.45177194 0.0016770021 549 117
-0.035829607 -0.058080044 0.45014149 0.0016666068 581 123
-0.033888169 -0.058307976 0.4518978 0.0016652344 554 118
-0.032227546 -0.059080541 0.45787424 0.0018073783 506 107
-0.030352261 -0.059540242 0.4614253 0.0018784693 466 99
-0.028307939 -0.059712648 0.46274939 0.001925063 449 95
-0.026074784 -0.059482355 0.46095276 0.0019199817 447 95
-0.023949673 -0.05947955 0.4609192 0.0018383196 476 101
-0.02181956 -0.059462573 0.46077624 0.0019298255 468 99
-0.019640218 -0.0592933 0.45945364 0.0019056627 473 100
-0.017424768 -0.058960967 0.45686823 0.0018322709 502 107
-0.015299789 -0.058885474 0.45627394 0.0017352191 516 110
-0.013239659 -0.059075277 0.45773625 0.0017803757 503 107
-0.011148682 -0.059173305 0.45848835 0.0018121144 501 106
-0.0090222694 -0.059085112 0.45779881 0.001765413 508 108
-0.0069370177 -0.059294932 0.45941949 0.0018256959 491 104
-0.0048065973 -0.059133388 0.4581641 0.0018124729 477 101
-0.0027435948 -0.060197935 0.46640968 0.0019049803 468 99
-0.00059377274 -0.060168758 0.46618256 0.0020207134 449 95
0.0015539984 -0.060140856 0.46596676 0.002052045 435 92
0.0037132807 -0.060332362 0.46745217 0.0019318891 452 96
0.0058527682 -0.060179703 0.46627244 0.0019168281 462 98
0.0080579007 -0.060602751 0.46955463 0.0019756111 467 99
0.010269384 -0.060884327 0.47174212 0.0018647644 467 99
0.012493677 -0.061130196 0.47365409 0.0019374243 472 100
0.01470145 -0.061234128 0.47446749 0.0019098136 455 97
0.016879411 -0.061203036 0.47423586 0.0018390685 473 100
0.019061543 -0.06119246 0.47416404 0.0018027058 489 104
0.021264931 -0.061245296 0.47458428 0.0018346346 470 100
0.023379849 -0.061057225 0.47313839 0.0018282661 476 101
0.025510905 -0.060939793 0.47224027 0.0017998134 486 103
0.027612781 -0.060776584 0.47098777 0.0018530389 490 104
0.029675324 -0.060556903 0.4692975 0.0017756158 501 106
0.031813048 -0.060510054 0.46894646 0.0018022184 529 112
0.034029547 -0.060609479 0.46972868 0.0017515278 521 111
0.03619279 -0.060607828 0.46972704 0.0016949187 538 114
0.038286034 -0.06049576 0.46886861 0.0017163107 527 112
0.040471919 -0.060534231 0.46917585 0.0017928455 516 110
0.042930212 -0.060955573 0.47244918 0.0018063787 496 105
0.045430057 -0.061392415 0.47584105 0.0018769326 482 102
0.047378995 -0.061078824 0.47341442 0.0017545343 517 110
0.048832417 -0.06018215 0.46646601 0.0017374025 542 115
0.050791543 -0.059958048 0.46472794 0.0017149103 543 115
0.053454805 -0.060549662 0.46930933 0.0017011573 542 115
0.055199943 -0.060095739 0.46578351 0.0017178062 549 117
0.057394743 -0.060146991 0.46616966 0.0017270193 545 116
0.05992673 -0.06053517 0.46916285 0.0016704323 548 116
0.06201271 -0.060461462 0.46857172 0.0017149753 550 117
0.063777782 -0.060090359 0.46567103 0.001671862 575 122
0.06505464 -0.059298411 0.45950425 0.0016153939 594 126
0.067055129 -0.059195176 0.4586691 0.001649128 592 126
0.068931445 -0.058992006 0.45705375 0.0015681478 601 128
0.071064413 -0.059014011 0.45717672 0.0015775309 597 127
0.073051751 -0.058917299 0.45637304 0.0015691557 604 128
0.075010851 -0.058803849 0.45543265 0.0015970941 585 124
0.076847591 -0.058603276 0.4538101 0.0016510448 555 118
0.078584373 -0.058339138 0.45168757 0.0017165453 535 114
0.079012595 -0.057142269 0.44233686 0.0017155674 530 113
0.078136437 -0.055086084 0.42633042 0.0016530929 558 118
0.077136084 -0.053045478 0.41044238 0.0016205141 612 130
0.077656299 -0.052123293 0.40320441 0.0015311552 651 138
0.078933142 -0.051740255 0.40013021 0.0014898969 662 141
0.079059049 -0.050637543 0.39148399 0.0014669114 700 149
0.080690138 -0.050526671 0.39049855 0.0014433076 701 149
0.082087971 -0.050277781 0.38843682 0.0014261582 732 156
0.084049799 -0.050377589 0.38905841 0.0014617096 686 146
0.085858487 -0.050383348 0.38894197 0.0014915499 667 142
0.087656513 -0.050382741 0.38876441 0.0015071162 648 138
0.089478664 -0.05039575 0.38867939 0.0015137035 647 137
0.090688318 -0.050070077 0.38597062 0.001517202 655 139
0.092708714 -0.050195966 0.38673022 0.0015284838 633 134
0.095026024 -0.050474789 0.38865241 0.0015739392 610 130
0.099237397 -0.051730573 0.39807552 0.0016684406 591 126
0.10456117 -0.053509731 0.41149586 0.0016847856 561 119
0.10866544 -0.054612156 0.41968066 0.0016414311 573 122
0.10778672 -0.053215545 0.40864578 0.001454309 711 151
0.10857628 -0.052676704 0.40419155 0.0013366261 792 168
0.11017567 -0.052542418 0.40282795 0.0013056776 820 174
0.11206802 -0.052550003 0.40253454 0.0012306815 897 191
0.11270597 -0.051978823 0.39779291 0.0012112797 944 201
0.11458939 -0.051991243 0.39750248 0.0012009479 929 198
0.11635854 -0.05195225 0.39679947 0.0011810997 969 206
0.118069 -0.051888678 0.39588943 0.0012275145 936 199
0.11933427 -0.051634457 0.39350697 0.001177848 973 207
0.12100973 -0.051562738 0.39249709 0.0011565579 1004 214
0.12280114 -0.051541846 0.39185339 0.001175719 976 208
0.12452444 -0.05149341 0.39097905 0.0012113502 931 198
0.12605728 -0.051368762 0.38950559 0.0012474559 906 193
0.12806848 -0.051439825 0.3894937 0.0012800196 859 183
0.12980275 -0.051399224 0.3886129 0.0012703394 856 182
0.1309747 -0.051140197 0.38606068 0.0012373861 902 192
0.13313808 -0.051270086 0.38642222 0.0012987456 851 181
0.13408886 -0.050935809 0.38326398 0.0012655421 864 184
0.13558191 -0.050813727 0.38168427 0.0012728252 863 184
0.13663876 -0.050533552 0.3788985 0.0012623067 868 185
0.13623102 -0.049726073 0.37215033 0.0012005938 945 201
0.13674061 -0.049269907 0.36802587 0.001168696 1010 215
0.13821261 -0.049167696 0.36653063 0.0011370275 1040 221
0.13982014 -0.049115654 0.36538932 0.0011283255 1049 223
0.14175028 -0.049176831 0.36506829 0.0011377828 1031 219
0.14242519 -0.048806366 0.36152694 0.0011331392 1065 227
0.14397055 -0.04873953 0.3602218 0.0010842237 1110 236
0.14556198 -0.048689708 0.35902575 0.0011327255 1102 234
0.14697811 -0.048583116 0.35739657 0.0011021046 1107 236
0.14878662 -0.048607197 0.35671461 0.0011129859 1113 237
0.15021648 -0.04850845 0.35511935 0.0011039894 1082 230
0.15170819 -0.048431698 0.35367739 0.0011164212 1062 226
0.15316692 -0.04834627 0.35216704 0.0011417913 1023 218
0.15445967 -0.04821093 0.35029247 0.0011266758 1040 221
0.1558208 -0.048099693 0.34859642 0.0011508206 1047 223
0.15737103 -0.048048608 0.34734225 0.0011433853 1051 224
0.15887082 -0.047983393 0.34599555 0.0011391952 1022 217
0.16016595 -0.047858421 0.34423348 0.0011549885 1024 218
0.16163483 -0.047787458 0.34288076 0.0011944931 986 210
0.16369866 -0.047892027 0.34280959 0.0012234966 937 199
0.16521132 -0.047834858 0.34160826 0.0012269949 905 192
0.16799784 -0.048143912 0.34305239 0.0012881397 837 178
0.17056423 -0.048384264 0.34403849 0.0013480809 784 167
0.17223102 -0.048367158 0.34323654 0.0014046994 772 164
0.17358182 -0.048262533 0.34186637 0.001443635 725 154
0.17544776 -0.048301797 0.34157255 0.0015232686 637 135
0.17979895 -0.049017824 0.34611726 0.0016544887 566 120
0.18216185 -0.04918322 0.34683052 0.0018638683 470 100
0.18551274 -0.049609672 0.3494491 0.0021692377 377 80
-0.18354641 -0.041907702 0.30771121 0.0017798413 530 113
-0.18593965 -0.042816136 0.31388423 0.001876303 487 103
-0.1858537 -0.043164402 0.31599012 0.0017601384 508 108
-0.18641433 -0.043670181 0.31929737 0.0018368664 480 102
-0.1864412 -0.044058673 0.32179904 0.0018689348 493 105
-0.18597245 -0.044335876 0.32354543 0.0017631985 506 107
-0.18517272 -0.044538397 0.32480907 0.001753884 529 112
-0.18437366 -0.04474473 0.326166 0.0016478357 561 119
-0.1834514 -0.044924632 0.32739839 0.0016572294 561 119
-0.18151852 -0.044858083 0.32690507 0.0016312648 574 122
-0.17925821 -0.044708628 0.32587886 0.0015321103 630 134
-0.17667103 -0.04447411 0.32430318 0.0014337054 732 156
-0.17416102 -0.04425478 0.32290742 0.0012948863 829 176
-0.17314273 -0.044413943 0.32434294 0.0013259812 816 173
-0.17158133 -0.044435505 0.32484293 0.0013104718 837 178
-0.17020336 -0.044505443 0.32576352 0.0013266817 825 175
-0.16894607 -0.044608619 0.32699218 0.0013571951 772 164
-0.16748326 -0.044659026 0.32789549 0.0013885209 742 158
-0.16536492 -0.044533901 0.32756451 0.0013563072 772 164
-0.16317312 -0.044386279 0.32711491 0.0013112157 810 172
-0.16223808 -0.044580985 0.32923442 0.0014877757 700 149
-0.16276418 -0.045185331 0.33443227 0.0015576786 657 140
-0.16262892 -0.04561672 0.33840227 0.0014657455 678 144
-0.16060725 -0.045522485 0.33850849 0.0013518996 769 163
-0.16115868 -0.046163298 0.3441146 0.0013424833 782 166
-0.15931302 -0.046123862 0.3446798 0.0012771193 868 185
-0.15827134 -0.046318848 0.34701335 0.0013014316 836 178
-0.1581891 -0.046801973 0.35152718 0.0013318607 803 171
-0.15702163 -0.046971172 0.35369971 0.0013018935 848 180
-0.15577018 -0.047118749 0.35571557 0.0013077147 844 179
-0.15549725 -0.047569018 0.36002398 0.0014335571 724 154
-0.15615863 -0.048318703 0.36661395 0.0014840051 668 142
-0.15301178 -0.04789377 0.36428735 0.0013306466 796 169
-0.15018609 -0.047560561 0.36263126 0.0012724475 869 185
-0.14850792 -0.047587156 0.36369762 0.0012592241 882 188
-0.14678961 -0.047601379 0.36465296 0.0012098243 932 198
-0.14551297 -0.047760908 0.36670589 0.0012138052 915 195
-0.14400145 -0.047846321 0.36817384 0.0013195262 809 172
-0.14520469 -0.048847117 0.37668237 0.0014225364 716 152
-0.14438765 -0.049184956 0.38007817 0.0015063471 645 137
-0.14283112 -0.049276307 0.38155279 0.0015526093 623 132
-0.1402763 -0.049021158 0.38031828 0.0014372779 701 149
-0.13833776 -0.048977513 0.38069633 0.0014025272 736 156
-0.1364896 -0.048965126 0.38129243 0.001413001 723 154
-0.13453612 -0.048914116 0.3815628 0.0014406656 701 149
-0.13300063 -0.049015757 0.38300064 0.0014239831 737 157
-0.13163191 -0.04918253 0.38492697 0.001407702 720 153
-0.13012299 -0.049300849 0.38645384 0.0014253234 707 150
-0.12836006 -0.049324948 0.38722029 0.0014506005 692 147
-0.12635279 -0.049254473 0.3872205 0.0014630553 682 145
-0.12516297 -0.049505271 0.38972563 0.0014776961 701 149
-0.12355035 -0.049593799 0.39093435 0.0014459195 689 146
-0.12215921 -0.04977525 0.39285606 0.0014958298 670 142
-0.12059994 -0.049892712 0.39425391 0.001489236 667 142
-0.11817151 -0.049648646 0.3927725 0.0015352267 650 138
-0.11618927 -0.049587291 0.3927131 0.0015585036 632 134
-0.11423232 -0.049534954 0.39270398 0.0015387246 633 134
-0.11265001 -0.049645986 0.39397082 0.001549236 642 136
-0.11089253 -0.049682248 0.39462623 0.0015938909 603 128
-0.10830921 -0.049343478 0.39228204 0.0015656464 608 129
-0.10606085 -0.04914831 0.39105785 0.0016295611 575 122
-0.10300696 -0.048566528 0.38673505 0.0016200716 575 122
-0.10124132 -0.048582263 0.38715005 0.0016425947 566 120
-0.099273033 -0.048499558 0.38676405 0.001645743 560 119
-0.097003117 -0.048263729 0.38513973 0.0016963433 542 115
-0.095092013 -0.048200931 0.38487944 0.0016910578 545 116
-0.091081895 -0.047051411 0.3759217 0.0015872528 601 128
-0.087769456 -0.04622449 0.36951864 0.0015199919 645 137
-0.085944556 -0.046163686 0.36922303 0.0015211556 639 136
-0.084136605 -0.046109695 0.36896905 0.0015246738 644 137
-0.083000772 -0.046429452 0.37169477 0.0016044102 623 132
-0.080893055 -0.04620757 0.37007314 0.0015620244 636 135
-0.079065032 -0.046139318 0.36966982 0.0015175019 654 139
-0.077320568 -0.046117894 0.36963084 0.0015812828 604 128
-0.07580252 -0.046233591 0.37068102 0.0015874675 620 132
-0.073865488 -0.046093185 0.36966798 0.0015155257 653 139
-0.072452411 -0.046280835 0.37127674 0.0014813662 672 143
-0.071597032 -0.046842441 0.37587824 0.0015251691 645 137
-0.070591532 -0.047331285 0.37988919 0.0015467807 626 133
-0.069200568 -0.047579985 0.38196585 0.00152926 635 135
-0.069769703 -0.049224593 0.39524367 0.0016989672 589 125
-0.068379454 -0.049537946 0.3978276 0.0016262239 579 123
-0.068006136 -0.050625607 0.4066242 0.0017918803 527 112
-0.069274858 -0.05303197 0.4260093 0.0019685645 459 97
-0.06904617 -0.05439898 0.43704215 0.0020032546 422 89
-0.067029975 -0.05439752 0.43707535 0.0019647994 459 97
-0.065205216 -0.054556146 0.43838856 0.0018841801 473 100
-0.063314855 -0.054668266 0.43932217 0.0018277527 481 102
-0.061397947 -0.054764114 0.4401198 0.0018949969 488 104
-0.059754763 -0.055118989 0.44299412 0.0017737338 503 107
-0.058022685 -0.055414092 0.44538349 0.0018968191 481 102
-0.056261547 -0.055702042 0.44771114 0.0018495518 494 105
-0.054194208 -0.055697225 0.44768173 0.0018365612 505 107
-0.052395288 -0.055978797 0.44995061 0.0017043916 526 112
-0.050221328 -0.055866372 0.44904932 0.0017063203 533 113
-0.048447408 -0.056208409 0.45179796 0.0018464638 500 106
-0.046303902 -0.056133121 0.45118949 0.0018625931 505 107
-0.044221938 -0.05612886 0.45114961 0.0017091173 529 112
-0.041821867 -0.055700514 0.44769913 0.0016771547 554 118
-0.039676573 -0.055584658 0.44675875 0.0016367828 569 121
-0.037839748 -0.05591191 0.44937846 0.0017409266 546 116
-0.035788789 -0.055942331 0.44961125 0.00169651 532 113
-0.03404687 -0.056489229 0.45399401 0.0017365476 521 111
-0.032086778 -0.056722056 0.45585185 0.0017621159 510 108
-0.030192681 -0.057112336 0.4589746 0.0017982316 490 104
-0.028168837 -0.057297498 0.46044865 0.0019003124 467 99
-0.026087508 -0.057386369 0.46114895 0.001893637 459 97
-0.023959672 -0.057379618 0.46108115 0.0019098371 444 94
-0.021837259 -0.057385806 0.46111786 0.0018976154 456 97
-0.019702604 -0.057357688 0.4608795 0.0019172396 452 96
-0.017463351 -0.056981489 0.45784521 0.0018605363 481 102
-0.015297446 -0.05677411 0.45616841 0.0017780047 500 106
-0.01320877 -0.056832924 0.45663166 0.0018597568 493 105
-0.011127159 -0.056950197 0.45756558 0.001944034 467 99
-0.0090303579 -0.057026401 0.45817089 0.0018454364 485 103
-0.0069376188 -0.057182591 0.45942014 0.0018622266 469 99
-0.004806106 -0.057016034 0.45807785 0.0018343318 475 101
-0.0026884251 -0.056881141 0.45699143 0.0018112898 488 104
-0.00059076166 -0.057726044 0.46377829 0.0018909377 458 97
0.0015503315 -0.057856519 0.46482688 0.0018600996 463 98
0.0036884369 -0.057788789 0.46428466 0.0019381022 453 96
0.0058590425 -0.05809303 0.46673229 0.0018986496 467 99
0.0079479404 -0.05764129 0.46310782 0.0018355612 479 102
0.010107339 -0.057783876 0.46425965 0.0019187558 481 102
0.012259358 -0.057841815 0.46473292 0.0017974557 490 104
0.014402393 -0.057846438 0.46477896 0.0017714059 506 107
0.016787276 -0.058695465 0.4716109 0.0018231518 491 104
0.019018698 -0.058874793 0.47306308 0.0018664016 476 101
0.021261672 -0.059049312 0.47447771 0.0018839763 471 100
0.023265244 -0.058588404 0.47078708 0.0019245947 477 101
0.025514279 -0.058771539 0.47227234 0.0018563191 474 101
0.027783804 -0.058969382 0.47387624 0.0019710138 462 98
0.029953627 -0.058942199 0.47367206 0.0019279789 471 100
0.031952813 -0.058605727 0.47098237 0.0018772504 491 104
0.034027655 -0.058442 0.46968055 0.0017918812 495 105
0.036148239 -0.058371726 0.4691292 0.0017978711 507 108
0.038240071 -0.058265559 0.46828866 0.001740062 512 109
0.040252704 -0.058056511 0.46662024 0.0018276578 510 108
0.042443354 -0.05811239 0.46707976 0.0017547787 502 107
0.04477831 -0.058350928 0.46900588 0.0017653063 504 107
0.046704371 -0.058059197 0.46666807 0.0017546539 534 113
0.048576504 -0.057729054 0.46401918 0.0016415351 575 122
0.05077257 -0.05779548 0.46455532 0.0016777759 563 120
0.052855607 -0.057733078 0.46405306 0.0017350359 557 118
0.055044658 -0.05778683 0.46448117 0.0016674259 555 118
0.056602407 -0.057198592 0.45974565 0.0016378734 558 118
0.059350397 -0.057812195 0.46466613 0.0016665231 561 119
0.061622404 -0.057935562 0.4656418 0.0016460359 560 119
0.06257613 -0.056852914 0.45692009 0.0015927397 595 126
0.064790264 -0.056948617 0.4576638 0.0015892083 589 125
0.06688533 -0.056936916 0.45753887 0.0016041644 583 124
0.06893941 -0.056892108 0.45714194 0.0015755668 600 127
0.07087592 -0.056755807 0.45600373 0.0015996732 587 125
0.072902761 -0.056697618 0.45548636 0.0016136986 577 123
0.074941307 -0.056651533 0.45505905 0.00162354 578 123
0.076893024 -0.056544095 0.45413148 0.0016363026 571 121
0.078757793 -0.056380119 0.45274201 0.0016747004 543 115
0.079459056 -0.055413205 0.44489774 0.0017062948 539 114
0.078250788 -0.053196825 0.4270179 0.0016887778 571 121
0.077504441 -0.05139561 0.4124684 0.0015662879 611 130
0.077629596 -0.050244804 0.40313491 0.0015601855 614 130
0.079333916 -0.050146047 0.40223542 0.0015321317 633 134
0.07930214 -0.048979536 0.39276424 0.0014762798 678 144
0.080413088 -0.048555188 0.38923818 0.0014153239 720 153
0.082326658 -0.048623443 0.38965142 0.0014414695 695 148
0.083949931 -0.048520993 0.38868591 0.0014414148 702 149
0.085531794 -0.048399404 0.38755634 0.0014123226 730 155
0.086843617 -0.048133139 0.38525787 0.0014612888 682 145
0.088182792 -0.047892436 0.38315347 0.0014492461 695 148
0.090060838 -0.047948122 0.38340828 0.0015597456 657 140
0.092608303 -0.048351161 0.38642561 0.0015233973 642 136
0.094469212 -0.048387244 0.38649461 0.0015133265 649 138
0.097657725 -0.049089339 0.39186546 0.0015508812 612 130
0.10102566 -0.049854312 0.39771596 0.0015552054 622 132
0.10632474 -0.051527712 0.41078475 0.0016320553 572 121
0.10949393 -0.052128114 0.41526997 0.0016265545 587 125
0.10963678 -0.051291872 0.40829447 0.0014613677 683 145
0.11025237 -0.050701518 0.40326741 0.001327535 801 170
0.11174354 -0.050526839 0.40153337 0.0012609435 871 185
0.11324227 -0.050361283 0.39985546 0.0012331451 900 191
0.11434484 -0.050027762 0.39682862 0.0012009294 940 200
0.11620595 -0.05003145 0.39645946 0.0011735181 973 207
0.11780489 -0.04992393 0.39518988 0.0011905878 951 202
0.11939351 -0.049815424 0.39389375 0.0011839274 959 204
0.12109905 -0.049758259 0.39298409 0.0012105571 942 200
0.12290908 -0.049745098 0.39240113 0.0011940666 949 202
0.12483057 -0.049776766 0.39214963 0.001250461 885 188
0.12666747 -0.049774278 0.39160627 0.0012737544 867 184
0.12842831 -0.049742397 0.39080924 0.0012991023 827 176
0.12981433 -0.049568295 0.38887399 0.001263625 869 185
0.13141406 -0.049479522 0.38758758 0.0013078141 858 182
0.13286178 -0.049336743 0.38585728 0.0012774677 852 181
0.134275 -0.049185194 0.38403812 0.0012787593 848 180
0.13511211 -0.0488295 0.38060769 0.0012823577 845 180
0.13576214 -0.04841648 0.37671682 0.0012546997 875 186
0.13588601 -0.047829021 0.37145913 0.0012309822 945 201
0.13695517 -0.047585133 0.36885834 0.0011846633 972 207
0.13811955 -0.047380108 0.36654249 0.0011461006 1020 217
0.13948706 -0.047249015 0.3647812 0.0011360238 1048 223
0.14059457 -0.047034211 0.36235708 0.001121825 1109 236
0.14201877 -0.046929296 0.36076361 0.001104757 1133 241
0.14350139 -0.046845991 0.35931909 0.001062421 1151 245
0.14528993 -0.046863358 0.35862872 0.0010756491 1136 242
0.14712146 -0.046894018 0.35802144 0.0010873459 1115 237
0.14881437 -0.046880286 0.35705891 0.0011077601 1081 230
0.1501255 -0.046747997 0.35518202 0.0011279879 1054 224
0.15149537 -0.046636794 0.35345826 0.0011184235 1062 226
0.15309593 -0.046598326 0.35227963 0.0011474909 1062 226
0.15472561 -0.046569478 0.35116932 0.0011428632 1035 220
0.15585025 -0.046390921 0.34893182 0.0011321865 1047 223
0.15717839 -0.046276189 0.34718174 0.0011364596 1061 226
0.15836266 -0.046122018 0.34514704 0.0011147039 1065 227
0.1596339 -0.045996204 0.34334067 0.0011292375 1053 224
0.16129614 -0.045984518 0.3424046 0.0011423066 1036 220
0.16295271 -0.045971464 0.34148011 0.0012296678 945 201
0.16482295 -0.046018351 0.34102702 0.0012227793 912 194
0.16751184 -0.046290502 0.34227058 0.0012647986 859 183
0.16981293 -0.046451058 0.34272051 0.0012970556 829 176
0.17137714 -0.046408847 0.34171695 0.0013349064 790 168
0.17340216 -0.046491023 0.34167862 0.0014528113 719 153
0.17525144 -0.046524927 0.34133914 0.0014959328 663 141
0.17732321 -0.046616662 0.3414824 0.0015601192 630 134
0.18205392 -0.047398902 0.34673908 0.001764486 510 108
0.18857035 -0.048626687 0.35530558 0.0020251828 419 89
-0.18425573 -0.040511817 0.3087863 0.0018414995 508 108
-0.18538022 -0.041106608 0.31283507 0.0017610539 516 110
-0.18582642 -0.04155992 0.31584954 0.001828988 504 107
-0.18757533 -0.042314976 0.32120275 0.0017902626 492 104
-0.18694112 -0.042540941 0.32259181 0.0017815006 500 106
-0.18638454 -0.042788725 0.32420638 0.0018335069 508 108
-0.18502551 -0.04285505 0.32451001 0.0017496174 542 115
-0.18274972 -0.042708322 0.32326826 0.0016363345 596 127
-0.18139683 -0.042776577 0.32372332 0.0015797945 601 128
-0.18003529 -0.042844012 0.3242425 0.0015409531 637 135
-0.17671286 -0.042441737 0.32127756 0.001448238 696 148
-0.17498225 -0.042417858 0.3212468 0.001457431 722 153
-0.17470035 -0.042748004 0.32396936 0.0014339902 726 154
-0.17419854 -0.043030094 0.32640114 0.0013588524 766 163
-0.17226568 -0.042960722 0.32623678 0.0013475276 763 162
-0.1707574 -0.042996917 0.32693985 0.0014068435 746 159
-0.16900176 -0.042970918 0.32723278 0.0013618973 764 162
-0.1670247 -0.042887561 0.32714662 0.0013575937 782 166
-0.16345699 -0.042390022 0.32394752 0.0013018574 844 179
-0.1622068 -0.042489525 0.32535464 0.0014339822 748 159
-0.16177773 -0.042808335 0.32849172 0.0014054935 730 155
-0.1610954 -0.043065999 0.33120811 0.0014389469 700 149
-0.16025017 -0.043285012 0.33366904 0.0013493382 777 165
-0.16026491 -0.043743346 0.33801529 0.0013215548 825 175
-0.16077834 -0.044348959 0.34354243 0.0014010803 755 160
-0.1594764 -0.04446144 0.34528074 0.0013193887 811 172
-0.15901516 -0.044813283 0.3488993 0.0013137967 810 172
-0.15754116 -0.044884291 0.35034731 0.0013438991 816 173
-0.15788588 -0.045480784 0.35591328 0.0013572217 777 165
-0.15650713 -0.045588605 0.3576681 0.0013882334 741 157
-0.1570043 -0.046251498 0.36378804 0.0015192977 639 136
-0.15451956 -0.046041083 0.36303976 0.0014340611 709 151
-0.15117982 -0.045568075 0.36019626 0.0012769459 854 182
-0.14937042 -0.045550652 0.36093077 0.0012480521 888 189
-0.14750353 -0.045515075 0.36150464 0.0012380544 896 191
-0.1476005 -0.046091918 0.36693501 0.0013344055 835 178
-0.14481349 -0.045771241 0.36520582 0.0012927609 830 176
-0.14388321 -0.046036739 0.36813211 0.0013673246 763 162
-0.14569102 -0.047195848 0.37820709 0.0015740546 641 136
-0.14422356 -0.047309808 0.37990561 0.0016779834 586 124
-0.14245741 -0.047327448 0.38080928 0.0015804231 636 135
-0.13755441 -0.046289932 0.37318313 0.0013874574 768 163
-0.13618395 -0.046429567 0.37500927 0.0013439003 786 167
-0.13573436 -0.046891037 0.37941992 0.0013552654 774 165
-0.13409492 -0.046948355 0.38054371 0.0013895782 750 159
-0.13243328 -0.046999358 0.38159382 0.001448151 739 157
-0.1313768 -0.047269512 0.38440365 0.0014340451 696 148
-0.12918341 -0.04713244 0.38387978 0.001411431 736 156
-0.12703294 -0.047007345 0.38342682 0.0013301914 793 169
-0.12563661 -0.047161743 0.38523093 0.0013886227 739 157
-0.12454988 -0.047438573 0.38801712 0.0014984665 690 147
-0.12306612 -0.047570173 0.38959748 0.0014643561 683 145
-0.12113774 -0.047531273 0.38976043 0.0014654102 700 149
-0.11932492 -0.047537234 0.39026937 0.0014628893 711 151
-0.11742862 -0.047509599 0.3904812 0.0014578293 687 146
-0.11554286 -0.047485419 0.39070025 0.0015017219 650 138
-0.11378733 -0.047514856 0.39134064 0.0015676561 640 136
-0.11193937 -0.047506012 0.39164633 0.0015581148 617 131
-0.11087473 -0.047834828 0.39471912 0.0015852343 598 127
-0.10888296 -0.047767993 0.3945106 0.0017141842 565 120
-0.10554896 -0.047099926 0.3893134 0.0017065197 562 119
-0.10260523 -0.04658572 0.38536295 0.0017431221 559 119
-0.10029197 -0.046344567 0.38364986 0.0016186874 583 124
-0.098704338 -0.046436068 0.38467366 0.001675652 551 117
-0.096538633 -0.046253987 0.38341522 0.0017340922 541 115
-0.092774354 -0.045284759 0.37561107 0.0015841309 602 128
-0.089455381 -0.044499978 0.36931399 0.001477042 677 144
-0.08779721 -0.044526871 0.36973614 0.00151171 651 138
-0.085769571 -0.04436373 0.36856693 0.0015261351 646 137
-0.083929829 -0.044293135 0.36815318 0.0015429078 634 135
-0.082248658 -0.044305023 0.36841303 0.0015412419 630 134
-0.08060649 -0.044338875 0.36884415 0.0015444998 629 134
-0.078869797 -0.044321068 0.36883461 0.001529726 671 143
-0.077387042 -0.044448327 0.37002206 0.001528149 636 135
-0.075560875 -0.044379637 0.36956841 0.0015177558 643 137
-0.073863953 -0.044385433 0.36972514 0.0015093023 656 139
-0.072545782 -0.044624489 0.37181628 0.0015208569 643 137
-0.071438469 -0.045007966 0.37510318 0.0015398039 654 139
-0.070842996 -0.045740962 0.38129669 0.0015796042 632 134
-0.069262072 -0.045858819 0.38235566 0.0015573847 651 138
-0.069902591 -0.047492098 0.39604452 0.0016194496 582 124
-0.068273753 -0.047629818 0.3972567 0.0016882602 578 123
-0.067909956 -0.048681997 0.40609008 0.0017055525 538 114
-0.068650804 -0.050608158 0.42221016 0.0018229465 483 102
-0.068603128 -0.052048456 0.4342733 0.0019544882 437 93
-0.067282237 -0.052580327 0.43875188 0.0019588284 434 92
-0.065287642 -0.052602336 0.43897021 0.0018493057 482 102
-0.063176945 -0.052529227 0.43838894 0.0018606236 467 99
-0.061217334 -0.052581064 0.43884492 0.0017919248 509 108
-0.059377979 -0.052743256 0.44021702 0.0017437954 515 109
-0.057502866 -0.052884039 0.44140592 0.001729551 524 111
-0.055726927 -0.053129695 0.44346598 0.0017771567 512 109
-0.053883292 -0.053327046 0.44511905 0.0018081188 521 111
-0.052001741 -0.05350101 0.44657335 0.0018132034 518 110
-0.050292533 -0.053873911 0.44968501 0.0018330257 491 104
-0.048261169 -0.053918943 0.45005712 0.001859736 501 106
-0.046201762 -0.053935274 0.45018709 0.0017738453 505 107
-0.044047881 -0.053837668 0.44936398 0.0017447424 509 108
-0.041730866 -0.05352122 0.44671232 0.0017017216 530 113
-0.039741546 -0.053614017 0.44747499 0.001742331 532 113
-0.037759725 -0.053727623 0.44841003 0.0016527806 557 118
-0.035867754 -0.053989649 0.45058271 0.0017165233 524 111
-0.033893988 -0.05415317 0.45193249 0.0017784261 499 106
-0.031789094 -0.054114889 0.4515976 0.0017514552 509 108
-0.029789323 -0.054262727 0.45281568 0.001792289 530 113
-0.028045941 -0.054935046 0.45841023 0.0018172454 483 102
-0.02608823 -0.055262875 0.46113017 0.0018780202 467 99
-0.024014475 -0.055381224 0.46210244 0.0019415069 444 94
-0.021880686 -0.055370707 0.46199998 0.0020115862 431 91
-0.019684602 -0.055183269 0.46042231 0.0020243847 436 92
-0.01754256 -0.055120345 0.45988443 0.0020098099 453 96
-0.015304481 -0.054696903 0.4563399 0.0019098311 476 101
-0.013183082 -0.054621965 0.45570433 0.0017848065 495 105
-0.011072163 -0.054570273 0.45526406 0.0018559018 489 104
-0.0089664524 -0.054526094 0.4548879 0.0017249211 523 111
-0.0068893395 -0.054681916 0.45618173 0.0018129062 519 110
-0.0047897147 -0.054717474 0.4564738 0.0017718581 503 107
-0.0026873664 -0.054753263 0.45676944 0.0018438527 508 108
-0.00058038655 -0.05461219 0.45559123 0.0017293211 515 109
0.0015212263 -0.054668136 0.45605835 0.0018007655 501 106
0.0036631338 -0.055267107 0.46105728 0.001868905 476 101
0.005777169 -0.05516012 0.46016836 0.0017988395 482 102
0.0079145683 -0.055273775 0.46112189 0.0017782615 494 105
0.010026878 -0.055201177 0.46052307 0.0017856032 495 105
0.012194136 -0.055403598 0.46222019 0.0017719367 500 106
0.014371169 -0.055583622 0.46373191 0.001827994 507 108
0.016529217 -0.055653103 0.46432278 0.0017716088 505 107
0.018726962 -0.055824995 0.46576923 0.0018873365 498 106
0.020933608 -0.055985332 0.46712047 0.0017750305 499 106
0.023044176 -0.055882778 0.46627912 0.0017968606 512 109
0.025301419 -0.056123063 0.46829924 0.0018294501 481 102
0.027714597 -0.056644298 0.4726643 0.0018420771 477 101
0.029948357 -0.056749575 0.47355908 0.0018924783 480 102
0.032092392 -0.056682084 0.47301224 0.0018398106 488 104
0.034127112 -0.056442391 0.47102818 0.0017931062 487 103
0.036338065 -0.056505393 0.47156981 0.0018658399 490 104
0.038443405 -0.056406327 0.47075832 0.0017756586 499 106
0.040440094 -0.056166939 0.46877486 0.0018284118 503 107
0.042359717 -0.055850219 0.46614456 0.0017823519 498 106
0.04442149 -0.055742439 0.46525663 0.0017168191 527 112
0.046378277 -0.055518907 0.46340075 0.0016762449 545 116
0.048385855 -0.055373173 0.46219218 0.0016764079 584 124
0.049929734 -0.054731425 0.45684087 0.0015679942 606 129
0.051967029 -0.054660592 0.45625225 0.0016058843 580 123
0.05411461 -0.054706756 0.45663717 0.0016530928 587 125
0.056287345 -0.054773938 0.45719403 0.0015836476 602 128
0.05860392 -0.054971211 0.45883295 0.0017119194 570 121
0.06070127 -0.054956257 0.45869622 0.0016414386 569 121
0.062717155 -0.05487103 0.45796841 0.0016959884 575 122
0.064769842 -0.054822523 0.45754206 0.0016774965 567 120
0.067068845 -0.05497897 0.45882085 0.0016788105 546 116
0.069086201 -0.054902047 0.4581461 0.0017188067 548 116
0.070947237 -0.054709136 0.4564974 0.0016685457 565 120
0.072774731 -0.054502219 0.45472541 0.0016125023 580 123
0.074602403 -0.05430701 0.45304441 0.0016219303 574 122
0.076784268 -0.054373257 0.45353699 0.0016711737 559 119
0.078527056 -0.054133303 0.45146772 0.0016922052 535 114
0.079490155 -0.05338214 0.4451279 0.001714905 537 114
0.078859471 -0.051625416 0.4303982 0.0016617947 555 118
0.078475684 -0.050112646 0.41769871 0.0016308859 580 123
0.078155369 -0.048711941 0.40592936 0.0015397192 624 133
0.07946761 -0.048370514 0.4029814 0.0015443503 639 136
0.079815224 -0.047470987 0.39537677 0.0015275514 682 145
0.080140196 -0.046598513 0.38799176 0.001424168 722 153
0.081231043 -0.046199791 0.38454425 0.001446857 733 156
0.082438447 -0.045883011 0.38177013 0.0013844501 749 159
0.08408381 -0.045818154 0.38108215 0.0014117266 772 164
0.085074306 -0.045406446 0.37749946 0.0013764144 783 166
0.08729776 -0.045656115 0.37940389 0.0014713146 698 148
0.089913495 -0.046097063 0.38288268 0.0014714025 675 143
0.091958709 -0.04623412 0.38382185 0.0015273446 677 144
0.094423413 -0.046572879 0.38641977 0.0015142915 644 137
0.096074484 -0.04650519 0.38562989 0.0015437932 663 141
0.099495135 -0.047280889 0.39181525 0.0015350276 633 134
0.10328129 -0.04819933 0.39915875 0.0015976732 598 127
0.10934948 -0.050131585 0.41486543 0.001648024 594 126
0.11110094 -0.050052159 0.41389588 0.0016146107 605 128
0.11063308 -0.048992634 0.4048112 0.0014220013 717 152
0.11212932 -0.048823811 0.40307599 0.0013291239 790 168
0.11316004 -0.048461188 0.399726 0.0012720305 870 185
0.11433196 -0.048169814 0.39694956 0.0012461173 905 192
0.11603392 -0.048107464 0.39604369 0.001236064 899 191
0.11800121 -0.04815536 0.39602548 0.001227888 904 192
0.11972999 -0.048105948 0.39518642 0.0012598319 912 194
0.12182453 -0.048202757 0.39552715 0.0012282814 899 191
0.12384109 -0.04826628 0.39557159 0.0012690722 900 191
0.12506373 -0.048023064 0.3930819 0.001286756 868 185
0.12697567 -0.048047755 0.39276484 0.0012841917 844 179
0.12843993 -0.047904778 0.39105558 0.001299349 829 176
0.12971705 -0.047697011 0.38879833 0.0012758829 855 182
0.13126722 -0.047594059 0.38737562 0.0012981888 857 182
0.13286242 -0.047510032 0.38608551 0.0013284287 831 177
0.13433552 -0.047385212 0.38444254 0.0013288142 835 178
0.13467994 -0.046870936 0.37962443 0.001301386 854 182
0.13455717 -0.046209808 0.37360945 0.0012226886 919 195
0.13556831 -0.045950234 0.37083057 0.0011902687 986 210
0.1367254 -0.045746181 0.36848322 0.0011829482 992 211
0.13796967 -0.045576107 0.36639214 0.0011394357 1029 219
0.13921657 -0.045411162 0.36432481 0.0011247671 1055 224
0.14042012 -0.045236327 0.36216146 0.0010720356 1135 241
0.14159134 -0.045055497 0.35993451 0.0011023964 1121 239
0.14331588 -0.045052975 0.35911459 0.0010884815 1135 241
0.1450599 -0.045056559 0.35832375 0.0010701417 1143 243
0.14688845 -0.045086008 0.35771963 0.0011266634 1081 230
0.14860772 -0.045081615 0.35682997 0.0011144439 1066 227
0.14975598 -0.04490611 0.35457465 0.0010945811 1089 232
0.15104377 -0.044775963 0.35267088 0.0010842343 1119 238
0.15212524 -0.044588275 0.35031056 0.0010988791 1139 242
0.15422082 -0.044698704 0.35028717 0.0011169417 1091 232
0.15526563 -0.044505496 0.34788275 0.0011080049 1079 230
0.15684104 -0.044466931 0.34669235 0.0011183067 1070 228
0.15776785 -0.044247299 0.34410027 0.0011149145 1077 229
0.15955485 -0.04427103 0.34341407 0.0011310871 1040 221
0.16115953 -0.044244204 0.34235033 0.0011567611 1006 214
0.1628406 -0.04423869 0.341472 0.0011790838 967 206
0.16481814 -0.044312995 0.341234 0.0012332443 934 199
0.16706653 -0.04445786 0.34156662 0.0012454557 890 189
0.16898695 -0.044513397 0.34124663 0.0012443328 893 190
0.17103374 -0.044600774 0.34121138 0.0013006227 828 176
0.17302875 -0.044673052 0.34110689 0.0014010303 751 160
0.17477873 -0.044681258 0.34056607 0.001411863 720 153
0.17670646 -0.04473431 0.34042507 0.0014687367 676 144
0.17901856 -0.044882711 0.34107077 0.00163827 589 125
0.18348411 -0.045563016 0.34581774 0.0017725539 508 108
-0.18229221 -0.038538866 0.30538931 0.0016973533 536 114
-0.18396574 -0.039224308 0.31035039 0.0017910608 520 110
-0.18486384 -0.039754778 0.31412587 0.0017697164 514 109
-0.18553823 -0.040245924 0.31763813 0.0017837954 492 104
-0.18760742 -0.04105087 0.32367712 0.0018522444 462 98
-0.1867058 -0.041214243 0.32471451 0.0017922015 495 105
-0.18564123 -0.041344225 0.32555395 0.0017277414 530 113
-0.18176188 -0.040844038 0.32150075 0.0016046317 584 124
-0.17953326 -0.040709078 0.32039329 0.0015160243 642 136
-0.17732754 -0.040576886 0.31937796 0.0015413357 663 141
-0.17687036 -0.040846061 0.32159296 0.0014560501 712 151
-0.175271 -0.040854026 0.32182315 0.001439473 744 158
-0.17438447 -0.041029856 0.32344735 0.0014143145 747 159
-0.17354546 -0.041220304 0.32525885 0.0014014507 769 163
-0.17247534 -0.041358992 0.32673278 0.0014039306 758 161
-0.17096567 -0.041393939 0.32745439 0.0013978259 731 155
-0.16875468 -0.041258115 0.32688609 0.0014504349 729 155
-0.16531403 -0.040816002 0.32394156 0.0013122 824 175
-0.16326745 -0.040712688 0.32373148 0.001339923 809 172
-0.1626741 -0.040973336 0.32646608 0.0014047595 727 155
-0.16155946 -0.041106656 0.32823575 0.0014053148 752 160
-0.15924634 -0.040934637 0.32760403 0.0012716257 884 188
-0.1587168 -0.041222282 0.33068529 0.0012643352 903 192
-0.15895046 -0.041716263 0.33546323 0.0012484996 878 187
-0.16093619 -0.042685434 0.34411266 0.0013808362 750 159
-0.15960272 -0.042785589 0.34579417 0.001343545 782 166
-0.15974762 -0.043288518 0.35075441 0.001368394 763 162
-0.15811355 -0.043315124 0.35187241 0.001351421 772 164
-0.15828162 -0.043841485 0.35706356 0.0014799683 713 152
-0.16009267 -0.044839811 0.36612809 0.0015614713 617 131
-0.15722898 -0.044536587 0.3645736 0.0015807898 641 136
-0.15308459 -0.043859497 0.35992926 0.0013412018 790 168
-0.15091634 -0.043739438 0.35982797 0.0013387349 808 172
-0.1492278 -0.04375723 0.36084425 0.0012775115 846 180
-0.14775787 -0.043840311 0.36238453 0.0013352002 801 170
-0.14618364 -0.043894067 0.36366686 0.0013317576 817 174
-0.1458333 -0.04432109 0.3680312 0.0013275633 798 170
-0.14510885 -0.044643518 0.37151968 0.0014636086 677 144
-0.14653271 -0.045643158 0.38064548 0.0017151511 559 119
-0.14446345 -0.045566224 0.38078609 0.0016896507 571 121
-0.13989745 -0.044689752 0.37420541 0.0014045608 722 153
-0.13737319 -0.044451259 0.37292477 0.0012986796 839 178
-0.13577828 -0.044511184 0.37412092 0.0013277379 804 171
-0.133654 -0.044396847 0.37382776 0.0012931916 830 176
-0.1330137 -0.04477901 0.37769514 0.0013162531 803 171
-0.1316662 -0.044930294 0.37959892 0.0013910496 740 157
-0.13003142 -0.044986352 0.38067719 0.0013684541 766 163
-0.12854472 -0.045095939 0.38218701 0.00140173 734 156
-0.12655649 -0.04503021 0.38218823 0.0014352195 733 156
-0.12606619 -0.04550324 0.38674399 0.0014475742 704 150
-0.12371417 -0.045308314 0.38560325 0.0014652716 723 154
-0.12208667 -0.045376871 0.38668105 0.0013984911 726 154
-0.12002619 -0.045284137 0.38636243 0.0014768832 727 155
-0.11880817 -0.045511294 0.38875297 0.0014387972 701 149
-0.1170109 -0.045520164 0.38926041 0.0014846623 664 141
-0.11529919 -0.045563124 0.39003927 0.0015829752 628 133
-0.11322256 -0.045460951 0.38955536 0.0015514175 633 134
-0.11110175 -0.045337405 0.38886693 0.0015337237 632 134
-0.10924713 -0.045320198 0.38907075 0.001648827 604 128
-0.10659818 -0.044967327 0.38637182 0.0015738328 609 129
-0.10435796 -0.044777714 0.38505417 0.0016201677 579 123
-0.10188026 -0.044477809 0.38276774 0.0015722266 609 129
-0.099923447 -0.044398692 0.3823626 0.0016579021 563 120
-0.097766593 -0.044226218 0.38113609 0.0016684326 575 122
-0.09432739 -0.043456614 0.37474304 0.0016064876 619 131
-0.09085203 -0.042641148 0.36793163 0.0014446919 698 148
-0.088919424 -0.042532414 0.36719984 0.0014310665 702 149
-0.087584801 -0.042711057 0.36893603 0.0014915093 664 141
-0.084994219 -0.042272147 0.36532408 0.0014940371 694 147
-0.083183475 -0.042211153 0.36496383 0.0014929456 681 145
-0.081644788 -0.042288542 0.3657884 0.0015000312 656 139
-0.080072664 -0.042351522 0.36647749 0.0015134227 664 141
-0.078748882 -0.042551409 0.36834133 0.0016546468 610 130
-0.077304319 -0.042693425 0.3696948 0.0016150431 588 125
-0.07559251 -0.042690929 0.36978722 0.0015848188 602 128
-0.074238248 -0.042894907 0.37165901 0.0015193302 643 137
-0.072502136 -0.042882681 0.37164879 0.0015409422 651 138
-0.07142166 -0.043267049 0.37506768 0.0014864488 670 142
-0.07100302 -0.044081397 0.38220775 0.0015794667 608 129
-0.069298647 -0.044118647 0.38260344 0.001560425 614 130
-0.069746584 -0.045563918 0.39520404 0.0016157157 580 123
-0.068352371 -0.045850996 0.39775389 0.0016704492 561 119
-0.067817546 -0.046746284 0.40557408 0.0016953826 543 115
-0.068186827 -0.048333187 0.4193905 0.0017941912 495 105
-0.067909479 -0.049540963 0.4299131 0.0019048793 454 96
-0.067409024 -0.05065367 0.43960604 0.0020193243 419 89
-0.065500669 -0.050744608 0.4404262 0.0019372243 460 98
-0.063188031 -0.050518136 0.43848556 0.0019014945 479 102
-0.060950514 -0.050338745 0.43694815 0.0018132302 506 107
-0.059133478 -0.050506238 0.43841675 0.0018196076 512 109
-0.057242539 -0.050620224 0.43941656 0.0017053556 540 115
-0.055340786 -0.050732657 0.44039872 0.0017632203 545 116
-0.053782828 -0.051180806 0.44429138 0.0016957901 544 115
-0.051830567 -0.051274344 0.44510236 0.0017111966 532 113
-0.050099991 -0.051603932 0.4479593 0.0017702025 503 107
-0.048130747 -0.051705439 0.44883361 0.0017617709 509 108
-0.046039328 -0.051678922 0.44859415 0.0017698215 508 108
-0.04392954 -0.051628321 0.44814366 0.0017324018 525 111
-0.041745309 -0.051480923 0.44685119 0.0017299844 519 110
-0.039759494 -0.051575623 0.44765878 0.0018753641 493 105
-0.037901126 -0.05185505 0.45006841 0.0018026707 491 104
-0.035905514 -0.051968187 0.45103383 0.0018025035 501 106
-0.033909786 -0.052095041 0.45211756 0.0017848189 498 106
-0.031812325 -0.052071985 0.45189995 0.0018341521 499 106
-0.029736383 -0.052083392 0.45198128 0.0017743036 506 107
-0.02768605 -0.052144744 0.4524962 0.0017507295 517 110
-0.025653681 -0.052252688 0.45341575 0.0018487838 498 106
-0.023989469 -0.053196151 0.46158558 0.0019075077 451 96
-0.021841848 -0.053146981 0.46114278 0.0019640592 434 92
-0.019725032 -0.053170238 0.46132943 0.0020118416 443 94
-0.017482853 -0.052820358 0.45827973 0.0019663377 459 97
-0.015345481 -0.052734487 0.45752189 0.0018697265 465 99
-0.013176167 -0.052493993 0.4554241 0.0018438241 471 100
-0.01105863 -0.052407708 0.45466566 0.0017856891 500 106
-0.0089516602 -0.052342858 0.45409477 0.0016960442 538 114
-0.006856849 -0.05233122 0.45398721 0.0017369898 523 111
-0.0047893566 -0.052609444 0.45639598 0.0018665408 481 102
-0.0026829627 -0.052561507 0.45597687 0.0018325141 481 102
-0.00057994289 -0.052471995 0.45519894 0.0017463034 516 110
0.0015182857 -0.052464325 0.45513284 0.0017520954 507 108
0.0036293271 -0.052651424 0.45675814 0.0018932029 481 102
0.005757676 -0.05286004 0.45857188 0.0018019961 492 104
0.0078706024 -0.052853037 0.45851696 0.0018001235 492 104
0.010020291 -0.053043596 0.46017757 0.0019274892 473 100
0.012157359 -0.05311244 0.4607839 0.0017809639 504 107
0.014274016 -0.053084899 0.46055555 0.0017456786 514 109
0.01650581 -0.053437237 0.46362457 0.0017881445 506 107
0.018686891 -0.053563442 0.464733 0.0017445027 514 109
0.020883806 -0.053704407 0.46597081 0.0017810975 497 105
0.023073411 -0.053802032 0.46683371 0.0017989109 490 104
0.025199205 -0.053746898 0.46637201 0.0017756576 505 107
0.027647847 -0.05433492 0.4714919 0.0017786119 503 107
0.029628806 -0.053985097 0.4684743 0.0018037842 489 104
0.032000095 -0.054345682 0.47162181 0.0017826381 502 107
0.0342476 -0.054463562 0.4726631 0.0018062167 486 103
0.036330774 -0.054321636 0.47144958 0.0018186405 487 103
0.038412713 -0.054193981 0.47035936 0.0017731781 502 107
0.040480014 -0.054060414 0.46921697 0.0018743424 474 101
0.042543054 -0.05393498 0.46814409 0.0017974488 500 106
0.044334646 -0.053494133 0.46433204 0.0017448021 529 112
0.046319347 -0.053316146 0.46279973 0.0017430832 542 115
0.0478407 -0.052643962 0.4569757 0.0016505109 571 121
0.049799036 -0.052489031 0.45563912 0.0015871105 598 127
0.05181006 -0.052399926 0.45487133 0.0015946325 588 125
0.053741585 -0.052240461 0.45348987 0.0015411275 628 133
0.05576282 -0.05217687 0.45293733 0.0015831155 598 127
0.058406226 -0.05267904 0.45729235 0.0016133852 573 122
0.060665656 -0.052811965 0.45843801 0.0016742389 571 121
0.0628438 -0.052867569 0.45890781 0.0016851055 550 117
0.064973228 -0.052879915 0.45899731 0.0016599684 559 119
0.067173786 -0.052947536 0.45956117 0.001675204 552 117
0.069248609 -0.052914947 0.45924953 0.0017288285 558 118
0.071102314 -0.052720342 0.45752558 0.0016379131 561 119
0.072325274 -0.052082732 0.45195118 0.0015811549 601 128
0.074209429 -0.05194363 0.45069626 0.0016220229 576 122
0.076367669 -0.051998723 0.45111886 0.0016337067 569 121
0.07750944 -0.05137714 0.44566384 0.0017278462 571 121
0.079425722 -0.051287785 0.44481796 0.0016952399 544 115
0.080304965 -0.050550126 0.43834201 0.0017430343 542 115
0.07880681 -0.048388936 0.41951773 0.0016297766 577 123
0.078116179 -0.046815287 0.40578488 0.001553284 633 134
0.079132594 -0.046314403 0.40134519 0.0015121569 640 136
0.079623699 -0.045536 0.39449394 0.0014321448 709 151
0.07999444 -0.04472512 0.38735512 0.0014011251 735 156
0.080903731 -0.04424423 0.38306743 0.0013364974 792 168
0.082466342 -0.044133559 0.38197613 0.0013875709 745 158
0.084003359 -0.044014115 0.38079861 0.0014029881 735 156
0.08551985 -0.043889038 0.37956172 0.0013687605 762 162
0.087746888 -0.044126317 0.38144618 0.001433381 715 152
0.090028778 -0.044381279 0.38346902 0.0014956894 661 140
0.091625206 -0.044295006 0.38252985 0.0014853422 667 142
0.093968146 -0.04456605 0.38466206 0.0015647092 639 136
0.097253352 -0.04526557 0.39047372 0.0015678584 613 130
0.099747948 -0.045578275 0.39292863 0.0015644489 614 130
0.10174573 -0.045656811 0.39334717 0.001609058 603 128
0.10503038 -0.046299871 0.39860913 0.0015683502 620 132
0.11073549 -0.04796914 0.41267464 0.0015980563 599 127
0.11250199 -0.047904477 0.41179514 0.0015227223 639 136
0.11276852 -0.047213968 0.4055227 0.0014186724 727 155
0.11442405 -0.047118165 0.40434515 0.0013621834 791 168
0.11561272 -0.046836343 0.40155491 0.0013125391 851 181
0.11634191 -0.046380326 0.39725769 0.0012414175 890 189
0.11818799 -0.046376888 0.3968206 0.0012830208 865 184
0.12017762 -0.046429023 0.3968381 0.0013084466 833 177
0.12214386 -0.046470664 0.39674389 0.0012559183 883 188
0.12332874 -0.046218239 0.39411962 0.0012510584 876 186
0.12582529 -0.04645757 0.39566672 0.0012750749 852 181
0.1270628 -0.046231832 0.39323029 0.0012910818 844 179
0.12844817 -0.046065602 0.3912816 0.0013177082 853 181
0.12983242 -0.045903668 0.38934997 0.0013186707 828 176
0.13105235 -0.045688968 0.38695186 0.0012455939 883 188
0.13084589 -0.044989724 0.38043818 0.0012562684 895 190
0.13235521 -0.044891395 0.37899274 0.0012625288 887 189
0.13358694 -0.044702809 0.37676534 0.0012236733 916 195
0.13377434 -0.044174358 0.37166005 0.0011913214 962 205
0.13427366 -0.043761324 0.36751628 0.0011716589 1026 218
0.1357733 -0.043680754 0.36614865 0.0011369493 1027 218
0.13799699 -0.043832202 0.36670136 0.001150826 1009 215
0.13927981 -0.043684755 0.36473042 0.0011487021 1057 225
0.13994385 -0.043349285 0.36117542 0.0010878957 1125 239
0.14143747 -0.043275855 0.35978898 0.0010784036 1128 240
0.14322196 -0.04329212 0.3591283 0.0010661592 1149 244
0.14494574 -0.043289863 0.35829362 0.0010824788 1123 239
0.14673287 -0.043306354 0.35759512 0.0011107766 1096 233
0.14824462 -0.043242142 0.35621393 0.001111434 1068 227
0.14893259 -0.042941879 0.35288024 0.0011068381 1130 240
0.14941749 -0.042590588 0.3491272 0.0010642951 1171 249
0.15178402 -0.042777516 0.34977904 0.0010685674 1144 243
0.15344603 -0.042763934 0.34878024 0.0010725396 1136 242
0.15515956 -0.042764846 0.34789571 0.0010949204 1104 235
